ncols         331
nrows         46
xllcorner     287655
yllcorner     3295005
cellsize      30
NODATA_value  -9999
-9999 -9999 -9999 -9999 -9999 -9999 -9999 -9999 -9999 -9999 -9999 -9999 -9999 -9999 -9999 -9999 -9999 -9999 -9999 -9999 -9999 -9999 -9999 -9999 -9999 -9999 -9999 -9999 -9999 -9999 -9999 -9999 -9999 -9999 -9999 -9999 -9999 -9999 -9999 -9999 -9999 -9999 -9999 -9999 -9999 -9999 -9999 -9999 -9999 -9999 -9999 -9999 -9999 -9999 -9999 -9999 -9999 -9999 -9999 -9999 -9999 -9999 -9999 -9999 -9999 -9999 -9999 -9999 -9999 -9999 -9999 -9999 -9999 -9999 -9999 -9999 -9999 -9999 -9999 -9999 -9999 -9999 -9999 -9999 -9999 -9999 -9999 -9999 -9999 -9999 -9999 -9999 -9999 -9999 -9999 8.633 8.586 8.583 8.728 8.517 8.397 8.382 8.503 8.633 8.494 8.452 8.424 8.424 8.436 8.642 8.203 8.226 8.089 8.072 7.945 9.797 10.024 9.582 8.823 7.831 7.437 7.437 8.003 6.932 6.54 7.093 8.059 7.957 7.459 7.14 7.236 7.001 4.205 4.064 7.238 7.395 7.944 8.06 8.165 7.993 7.993 8.323 8.563 8.313 8.274 8.275 8.314 8.318 8.699 8.502 8.359 8.497 8.454 8.317 8.277 8.242 8.076 8.078 7.959 7.88 8.126 7.87 7.743 7.852 7.666 7.603 7.603 8.089 7.694 7.94 7.938 8.257 8.207 7.976 8.174 8.181 8.251 8.523 8.523 8.807 9.12 8.744 8.811 8.42 8.42 9.018 8.563 8.518 8.607 8.507 8.321 8.099 8.206 8.16 7.937 7.769 7.822 7.703 7.239 7.111 6.926 6.629 6.665 6.313 5.912 5.912 6.096 5.924 6.228 6.763 7.043 7.312 7.448 7.472 7.4 7.542 7.665 7.827 8.048 7.717 7.643 7.583 7.608 7.495 7.433 7.746 7.724 7.732 7.658 7.951 8.025 7.627 7.522 7.932 8.17 7.769 7.87 7.661 7.661 7.661 7.775 7.827 8.013 8.084 7.883 7.936 8.012 7.977 8 7.756 7.894 8.052 7.756 7.806 7.988 8.234 8.29 8.051 7.644 7.644 7.644 7.749 7.672 7.628 7.736 7.653 7.517 7.682 7.57 7.516 7.569 7.399 7.471 7.39 7.467 7.617 7.7 7.64 7.946 7.96 7.615 7.603 7.483 7.442 7.391 7.489 7.454 7.624 -9999 -9999 -9999 -9999 -9999 -9999 -9999 -9999 -9999 -9999 -9999 -9999 -9999 -9999 -9999 -9999 -9999 -9999 -9999 -9999 -9999 -9999 -9999 -9999 -9999 -9999 -9999 -9999 -9999 -9999 -9999 -9999 -9999 -9999 -9999 -9999 -9999 -9999 -9999 -9999 -9999 -9999 -9999
-9999 -9999 -9999 -9999 -9999 -9999 -9999 -9999 -9999 -9999 -9999 -9999 -9999 -9999 -9999 -9999 -9999 -9999 -9999 -9999 -9999 -9999 -9999 -9999 -9999 -9999 -9999 -9999 -9999 -9999 -9999 -9999 -9999 -9999 -9999 -9999 -9999 -9999 -9999 -9999 -9999 -9999 -9999 -9999 -9999 -9999 -9999 -9999 -9999 -9999 -9999 -9999 -9999 -9999 -9999 -9999 -9999 -9999 -9999 -9999 -9999 -9999 -9999 -9999 -9999 -9999 -9999 -9999 -9999 -9999 -9999 -9999 -9999 -9999 -9999 -9999 -9999 -9999 -9999 -9999 -9999 -9999 -9999 -9999 -9999 -9999 -9999 -9999 -9999 -9999 -9999 -9999 -9999 -9999 -9999 8.389 8.317 8.486 8.442 8.487 8.31 8.44 8.31 8.464 8.411 8.484 8.424 8.474 8.462 8.403 8.328 8.17 7.874 7.873 7.437 8.94 10.327 9.248 9.35 7.987 7.437 7.437 7.91 6.641 6.54 7.257 7.73 7.994 7.999 7.652 7.707 8.289 4.064 6.389 8.027 8.044 8.194 8.263 8.269 8.176 8.072 8.301 8.418 8.288 8.21 8.236 8.129 8.116 8.583 8.359 8.381 8.381 8.317 8.432 8.159 8.159 8.076 8.381 7.88 8.196 7.88 8.01 7.945 7.743 7.603 7.603 7.811 7.788 7.774 7.846 7.993 8.297 8.464 8.343 8.099 8.195 8.472 8.738 8.545 8.926 8.509 8.745 8.638 8.53 8.479 8.726 8.488 8.731 8.529 8.544 8.494 8.102 8.099 8.355 8.2 7.846 7.769 7.341 7.218 6.962 6.796 6.946 6.682 6.428 5.912 6.027 5.899 5.891 5.969 6.489 6.835 7.175 7.34 7.325 7.471 7.572 7.726 7.727 7.756 7.65 7.659 7.378 7.316 7.459 7.345 7.429 7.49 7.867 7.839 7.923 7.938 7.879 7.495 7.62 7.791 7.639 7.858 7.661 7.824 7.661 7.693 7.65 7.861 7.835 7.93 7.911 7.987 7.848 7.843 7.89 7.756 7.756 7.957 8.248 8.207 8.061 7.659 7.644 7.644 7.689 7.644 7.797 7.731 7.612 7.517 7.517 7.517 7.517 7.436 7.428 7.62 7.563 7.399 7.532 7.662 7.665 7.681 7.609 8.309 8.163 7.817 7.657 7.514 7.456 7.618 7.606 7.573 7.616 6.216 -9999 -9999 -9999 -9999 -9999 -9999 -9999 -9999 -9999 -9999 -9999 -9999 -9999 -9999 -9999 -9999 -9999 -9999 -9999 -9999 -9999 -9999 -9999 -9999 -9999 -9999 -9999 -9999 -9999 -9999 -9999 -9999 -9999 -9999 -9999 -9999 -9999 -9999 -9999 -9999 -9999 -9999
-9999 -9999 -9999 -9999 -9999 -9999 -9999 -9999 -9999 -9999 -9999 -9999 -9999 -9999 -9999 -9999 -9999 -9999 -9999 -9999 -9999 -9999 -9999 -9999 -9999 -9999 -9999 -9999 -9999 -9999 -9999 -9999 -9999 -9999 -9999 -9999 -9999 -9999 -9999 -9999 -9999 -9999 -9999 -9999 -9999 -9999 -9999 -9999 -9999 -9999 -9999 -9999 -9999 -9999 -9999 -9999 -9999 -9999 -9999 -9999 -9999 -9999 -9999 -9999 -9999 -9999 -9999 -9999 -9999 -9999 -9999 -9999 -9999 -9999 -9999 -9999 -9999 -9999 -9999 -9999 -9999 -9999 -9999 -9999 -9999 -9999 -9999 -9999 -9999 -9999 -9999 -9999 -9999 -9999 -9999 8.326 8.319 8.317 8.31 8.31 8.31 8.31 8.435 8.31 8.31 8.31 8.335 8.172 8.172 8.273 7.986 7.986 7.948 7.798 7.437 7.437 7.437 7.437 7.437 7.437 7.437 7.437 7.769 6.443 6.643 7.581 7.9 8.308 8.397 8.276 8.287 5.952 4.064 6.809 7.907 8.076 8.044 8.044 8.044 8.33 8.205 8.268 8.279 8.224 8.083 8.029 7.988 8.085 8.195 8.162 8.159 8.186 8.307 8.128 8.576 8.36 8.076 8.24 8.308 8.413 8.03 8.127 7.812 7.805 7.628 7.603 7.603 7.824 7.988 8.141 8.225 8.38 8.625 8.382 8.13 8.307 8.917 8.282 8.363 8.331 8.657 8.901 8.645 8.635 8.423 8.351 8.404 8.703 8.573 8.57 8.448 8.351 8.068 8.298 8.076 7.988 7.099 7.099 7.099 7.222 6.802 7.094 6.824 6.477 5.912 6.076 5.937 5.882 5.9 6.284 6.698 6.949 7.148 7.389 7.414 7.445 7.733 7.713 7.668 7.767 7.435 7.316 7.378 7.374 7.345 7.363 7.691 7.852 7.717 7.627 7.69 7.622 7.309 7.836 7.711 7.61 7.706 7.876 7.748 7.57 7.613 7.653 7.749 7.66 7.937 7.892 7.916 7.756 7.756 7.756 8.032 8.275 8.184 7.887 7.7 7.7 7.783 7.66 7.86 7.788 7.562 7.603 7.582 7.632 7.569 7.517 7.517 7.664 7.473 7.428 7.802 7.428 7.399 7.629 7.717 7.651 7.609 7.693 8.317 8.097 7.866 7.723 7.703 7.629 7.487 7.374 7.374 7.973 7.684 7.646 -9999 -9999 -9999 -9999 -9999 -9999 -9999 -9999 -9999 -9999 -9999 -9999 -9999 -9999 -9999 -9999 -9999 -9999 -9999 -9999 -9999 -9999 -9999 -9999 -9999 -9999 -9999 -9999 -9999 -9999 -9999 -9999 -9999 -9999 -9999 -9999 -9999 -9999 -9999 -9999 -9999
-9999 -9999 -9999 -9999 -9999 -9999 -9999 -9999 -9999 -9999 -9999 -9999 -9999 -9999 -9999 -9999 -9999 -9999 -9999 -9999 -9999 -9999 -9999 -9999 -9999 -9999 -9999 -9999 -9999 -9999 -9999 -9999 -9999 -9999 -9999 -9999 -9999 -9999 -9999 -9999 -9999 -9999 -9999 -9999 -9999 -9999 -9999 -9999 -9999 -9999 -9999 -9999 -9999 -9999 -9999 -9999 -9999 -9999 -9999 -9999 -9999 -9999 -9999 -9999 -9999 -9999 -9999 -9999 -9999 -9999 -9999 -9999 -9999 -9999 -9999 -9999 -9999 -9999 -9999 -9999 -9999 -9999 -9999 -9999 -9999 -9999 -9999 -9999 -9999 -9999 -9999 -9999 -9999 -9999 -9999 8.319 8.55 8.391 8.31 8.428 8.31 8.586 8.751 8.493 8.565 8.468 8.31 8.172 8.172 8.175 8.146 8.171 8.004 8.064 7.571 9.152 9.598 9.889 9.076 8.313 7.437 7.437 7.721 6.357 6.701 8.394 8.14 8.264 8.47 7.777 8.688 4.064 4.804 7.674 8.324 8.492 8.402 8.343 8.206 8.153 8.153 8.257 8.183 8.16 7.957 8.115 8.057 7.965 8.072 7.965 8.349 8.254 8.128 8.258 8.216 8.275 8.24 8.076 8.39 8.074 8.187 7.838 7.807 7.665 7.603 7.603 7.721 7.86 8.46 8.469 8.463 8.225 8.544 8.798 8.31 8.282 8.282 8.599 8.36 8.282 8.645 8.865 8.721 8.596 8.682 8.383 8.351 8.737 8.711 8.39 8.542 8.562 8.619 7.977 7.977 7.755 7.619 7.414 7.284 7.127 7.048 7.129 6.924 6.646 5.912 6.003 5.874 6.527 5.919 6.487 6.609 6.744 7.139 7.154 7.258 7.431 7.65 7.694 7.703 7.633 7.545 7.224 7.36 7.264 7.17 7.271 7.727 7.851 7.75 7.521 7.444 7.78 7.292 7.727 7.639 7.53 7.646 7.737 7.681 7.626 7.57 7.655 7.565 7.76 7.919 7.82 7.756 7.84 8.04 8.344 8.137 7.934 7.797 7.797 7.783 7.756 7.802 7.788 7.551 7.748 7.562 7.584 7.582 7.612 7.593 7.632 7.585 7.616 7.428 7.604 7.71 7.455 7.486 7.712 7.728 7.609 7.752 8.173 8.311 8.109 7.623 7.611 7.742 7.562 7.376 7.677 7.637 7.372 7.398 7.622 7.587 -9999 -9999 -9999 -9999 -9999 -9999 -9999 -9999 -9999 -9999 -9999 -9999 -9999 -9999 -9999 -9999 -9999 -9999 -9999 -9999 -9999 -9999 -9999 -9999 -9999 -9999 -9999 -9999 -9999 -9999 -9999 -9999 -9999 -9999 -9999 -9999 -9999 -9999 -9999 -9999
-9999 -9999 -9999 -9999 -9999 -9999 -9999 -9999 -9999 -9999 -9999 -9999 -9999 -9999 -9999 -9999 -9999 -9999 -9999 -9999 -9999 -9999 -9999 -9999 -9999 -9999 -9999 -9999 -9999 -9999 -9999 -9999 -9999 -9999 -9999 -9999 -9999 -9999 -9999 -9999 -9999 -9999 -9999 -9999 -9999 -9999 -9999 -9999 -9999 -9999 -9999 -9999 -9999 -9999 -9999 -9999 -9999 -9999 -9999 -9999 -9999 -9999 -9999 -9999 -9999 -9999 -9999 -9999 -9999 -9999 -9999 -9999 -9999 -9999 -9999 -9999 -9999 -9999 -9999 -9999 -9999 -9999 -9999 -9999 -9999 -9999 -9999 -9999 -9999 -9999 -9999 -9999 -9999 -9999 -9999 8.408 8.425 8.689 8.366 8.477 8.424 8.414 8.587 8.417 8.417 8.417 8.227 8.172 8.286 8.146 8.188 8.254 8.145 8.17 7.618 9.773 10.8 10.757 9.672 8.62 7.437 7.437 7.663 6.389 6.067 8.224 7.993 7.72 7.73 7.884 7.55 4.064 7.28 7.631 7.999 8.465 8.376 8.306 8.166 8.188 8.234 8.202 8.184 8.077 7.939 7.952 7.987 7.924 7.909 7.89 8.066 8.127 8.185 8.295 8.197 8.072 8.132 8.076 8.114 8.132 7.907 7.875 7.676 7.603 7.613 7.695 7.896 8.114 7.86 8.326 8.689 8.348 8.422 8.31 8.512 8.282 8.282 8.282 8.282 8.282 8.282 8.711 8.617 8.779 8.7 8.502 8.351 8.351 8.351 8.633 8.274 8.388 8.441 8.421 8.095 7.892 7.765 7.481 7.236 7.188 7.503 7.154 6.896 6.525 6.104 6.475 5.904 5.856 5.928 6.476 6.312 6.518 6.722 6.877 7.025 7.403 7.464 7.575 7.466 7.447 7.221 7.283 7.231 7.13 7.112 7.37 7.747 7.92 7.732 7.464 7.444 8.027 7.291 7.519 7.493 7.537 7.666 7.67 7.775 7.57 7.673 7.711 7.52 7.71 7.622 7.756 8.079 8.306 8.068 7.855 7.633 7.868 7.947 8.007 7.647 7.696 7.613 7.568 7.49 7.693 7.846 7.506 7.506 7.522 7.591 7.536 7.649 7.523 7.547 7.428 7.743 7.547 7.629 7.538 7.572 7.678 7.717 7.976 8.266 7.527 7.843 7.676 7.505 7.634 7.902 7.334 7.285 7.285 7.372 7.4 7.459 -9999 -9999 -9999 -9999 -9999 -9999 -9999 -9999 -9999 -9999 -9999 -9999 -9999 -9999 -9999 -9999 -9999 -9999 -9999 -9999 -9999 -9999 -9999 -9999 -9999 -9999 -9999 -9999 -9999 -9999 -9999 -9999 -9999 -9999 -9999 -9999 -9999 -9999 -9999 -9999
-9999 -9999 -9999 -9999 -9999 -9999 -9999 -9999 -9999 -9999 -9999 -9999 -9999 -9999 -9999 -9999 -9999 -9999 -9999 -9999 -9999 -9999 -9999 -9999 -9999 -9999 -9999 -9999 -9999 -9999 -9999 -9999 -9999 -9999 -9999 -9999 -9999 -9999 -9999 -9999 -9999 -9999 -9999 -9999 -9999 -9999 -9999 -9999 -9999 -9999 -9999 -9999 -9999 -9999 -9999 -9999 -9999 -9999 -9999 -9999 -9999 -9999 -9999 -9999 -9999 -9999 -9999 -9999 -9999 -9999 -9999 -9999 -9999 -9999 -9999 -9999 -9999 -9999 -9999 -9999 -9999 -9999 -9999 -9999 -9999 -9999 -9999 -9999 -9999 -9999 -9999 -9999 -9999 -9999 -9999 8.474 8.464 8.559 8.567 8.547 8.399 8.556 8.493 8.57 8.435 8.442 8.454 8.437 8.208 8.346 8.149 8.314 8.145 8.366 7.846 10.131 11.391 10.957 10.024 8.567 7.437 7.437 7.785 6.5 6.067 7.526 7.58 7.412 7.096 7.318 4.064 4.268 7.258 8.131 8.3 8.124 8.124 8.124 8.124 8.241 8.274 8.202 8.33 8.07 7.898 7.889 7.9 7.886 7.89 7.89 8.004 8.069 8.017 8.065 8.15 8.046 8.15 8.169 8.171 8.134 8.105 7.883 7.938 7.451 7.22 7.22 7.79 8.39 8.141 8.45 8.415 8.368 8.324 8.31 8.558 8.457 8.282 8.282 8.282 8.282 8.848 8.653 8.593 8.593 8.656 8.676 8.351 8.351 8.451 8.274 8.362 8.34 8.423 8.173 7.94 7.861 7.702 7.694 7.471 7.478 7.674 7.292 7.158 6.514 6.376 5.823 6.393 5.856 5.871 6.175 6.213 6.24 6.512 6.85 6.954 7.156 7.392 7.349 7.519 7.05 7.156 7.042 6.899 7.004 6.998 7.254 7.254 7.457 7.71 7.442 7.358 7.814 7.198 7.629 7.511 7.427 7.563 7.426 7.504 7.637 7.649 7.52 7.52 7.622 8.018 8.36 8.402 7.914 7.663 7.663 7.673 7.633 7.633 7.737 7.63 7.582 7.49 7.49 7.49 7.674 7.506 7.506 7.506 7.506 7.506 7.506 7.394 7.382 7.415 7.382 7.382 7.382 7.413 7.413 7.536 7.606 7.585 7.585 7.585 7.528 7.527 7.71 7.916 7.505 7.505 7.513 7.343 7.285 7.285 7.285 7.324 7.36 -9999 -9999 -9999 -9999 -9999 -9999 -9999 -9999 -9999 -9999 -9999 -9999 -9999 -9999 -9999 -9999 -9999 -9999 -9999 -9999 -9999 -9999 -9999 -9999 -9999 -9999 -9999 -9999 -9999 -9999 -9999 -9999 -9999 -9999 -9999 -9999 -9999 -9999 -9999
-9999 -9999 -9999 -9999 -9999 -9999 -9999 -9999 -9999 -9999 -9999 -9999 -9999 -9999 -9999 -9999 -9999 -9999 -9999 -9999 -9999 -9999 -9999 -9999 -9999 -9999 -9999 -9999 -9999 -9999 -9999 -9999 -9999 -9999 -9999 -9999 -9999 -9999 -9999 -9999 -9999 -9999 -9999 -9999 -9999 -9999 -9999 -9999 -9999 -9999 -9999 -9999 -9999 -9999 -9999 -9999 -9999 -9999 -9999 -9999 -9999 -9999 -9999 -9999 -9999 -9999 -9999 -9999 -9999 -9999 -9999 -9999 -9999 -9999 -9999 -9999 -9999 -9999 -9999 -9999 -9999 -9999 -9999 -9999 -9999 -9999 -9999 -9999 -9999 -9999 -9999 -9999 -9999 -9999 -9999 8.391 8.498 8.378 8.286 8.286 8.272 8.368 8.422 8.51 8.435 8.578 8.482 8.208 8.377 8.243 8.393 8.435 8.401 8.433 8.361 9.853 10.907 10.843 10.035 8.504 7.437 7.437 8.034 6.724 6.067 6.125 6.498 6.624 6.683 7.169 4.064 5.355 7.179 8.092 8.258 8.429 8.318 8.372 8.124 8.243 8.106 8.162 8.238 8.104 7.834 7.893 7.841 7.8 8.055 7.89 8.033 7.918 8.275 8.141 8.062 8.032 8.005 8.037 7.975 7.975 8.113 7.733 7.599 7.479 7.22 7.324 7.847 7.94 7.866 8.411 8.506 8.38 8.343 8.31 8.4 8.282 8.289 8.308 8.282 8.282 8.295 8.606 8.615 8.753 8.57 8.479 8.473 8.472 8.483 8.282 8.274 8.184 8 7.986 7.844 7.87 7.792 7.826 7.893 7.667 7.509 7.306 7.152 6.658 6.266 6.089 5.823 5.997 5.913 6.023 6.062 6.107 6.244 6.514 6.791 6.883 7.033 7.626 7.248 7.103 7.05 6.839 6.772 6.823 6.968 7.374 7.887 7.942 7.673 7.543 7.464 7.358 7.072 7.326 7.326 7.425 7.29 7.475 7.426 7.426 7.52 8.029 8.135 8.49 8.791 8.399 7.482 7.728 7.883 7.663 7.777 7.692 7.655 7.633 7.642 7.622 7.571 7.631 7.49 7.687 7.719 7.725 7.751 7.748 7.554 7.679 7.382 7.55 7.382 7.382 7.53 7.387 7.478 7.422 7.574 7.765 7.717 7.589 7.689 7.731 7.821 7.491 7.659 7.735 7.78 7.409 7.326 7.61 7.309 7.41 7.279 7.237 -9999 -9999 -9999 -9999 -9999 -9999 -9999 -9999 -9999 -9999 -9999 -9999 -9999 -9999 -9999 -9999 -9999 -9999 -9999 -9999 -9999 -9999 -9999 -9999 -9999 -9999 -9999 -9999 -9999 -9999 -9999 -9999 -9999 -9999 -9999 -9999 -9999 -9999 -9999
-9999 -9999 -9999 -9999 -9999 -9999 -9999 -9999 -9999 -9999 -9999 -9999 -9999 -9999 -9999 -9999 -9999 -9999 -9999 -9999 -9999 -9999 -9999 -9999 -9999 -9999 -9999 -9999 -9999 -9999 -9999 -9999 -9999 -9999 -9999 -9999 -9999 -9999 -9999 -9999 -9999 -9999 -9999 -9999 -9999 -9999 -9999 -9999 -9999 -9999 -9999 -9999 -9999 -9999 -9999 -9999 -9999 -9999 -9999 -9999 -9999 -9999 -9999 -9999 -9999 -9999 -9999 -9999 -9999 -9999 -9999 -9999 -9999 -9999 -9999 -9999 -9999 -9999 -9999 -9999 -9999 -9999 -9999 -9999 -9999 -9999 -9999 -9999 -9999 -9999 -9999 -9999 -9999 -9999 -9999 8.328 8.325 8.503 8.46 8.337 8.272 8.637 8.59 8.437 8.449 8.514 8.359 8.208 8.587 8.406 8.374 8.456 8.398 8.408 8.361 9.618 10.31 10.37 9.991 8.895 7.768 7.437 8.326 7.024 5.696 5.266 5.123 7.169 7.015 4.064 5.018 6.685 7.744 7.29 7.816 8.238 8.328 8.45 8.348 8.139 8.116 8.106 8.061 8.027 7.879 7.829 7.701 7.716 7.949 8.015 7.941 7.908 8.133 8.398 8.598 7.989 7.899 8.096 7.975 7.975 8.175 7.599 7.785 7.674 7.22 7.352 7.721 7.984 7.866 8.551 8.692 8.649 8.6 8.557 8.538 8.547 8.535 8.596 8.565 8.555 8.589 8.622 8.757 8.832 8.767 8.391 8.594 8.345 8.372 8.296 7.914 7.887 7.887 7.574 7.574 7.268 6.951 6.933 6.802 6.797 6.658 6.658 6.658 7.012 5.823 5.823 5.823 5.823 5.903 5.836 5.78 5.78 5.78 6.019 6.405 6.607 7.016 7.059 7.302 7.026 6.794 6.666 6.555 6.562 6.623 7.178 7.714 7.971 7.701 7.451 7.375 7.434 7.072 7.072 7.072 7.072 7.072 9.199 9.855 9.407 9.118 8.987 8.881 7.066 7.174 7.482 7.787 7.771 7.947 7.709 7.71 7.621 7.661 7.591 7.591 7.843 7.518 7.45 7.452 7.6 7.55 7.627 7.652 7.569 7.361 7.361 7.343 7.504 7.382 7.415 7.43 7.497 7.387 7.492 7.562 7.744 7.73 7.64 7.696 7.837 7.925 7.491 7.552 7.469 7.312 7.376 7.322 7.325 7.309 7.476 7.326 7.267 7.217 -9999 -9999 -9999 -9999 -9999 -9999 -9999 -9999 -9999 -9999 -9999 -9999 -9999 -9999 -9999 -9999 -9999 -9999 -9999 -9999 -9999 -9999 -9999 -9999 -9999 -9999 -9999 -9999 -9999 -9999 -9999 -9999 -9999 -9999 -9999 -9999 -9999 -9999
-9999 -9999 -9999 -9999 -9999 -9999 -9999 -9999 -9999 -9999 -9999 -9999 -9999 -9999 -9999 -9999 -9999 -9999 -9999 -9999 -9999 -9999 -9999 -9999 -9999 -9999 -9999 -9999 -9999 -9999 -9999 -9999 -9999 -9999 -9999 -9999 -9999 -9999 -9999 -9999 -9999 -9999 -9999 -9999 -9999 -9999 -9999 -9999 -9999 -9999 -9999 -9999 -9999 -9999 -9999 -9999 -9999 -9999 -9999 -9999 -9999 -9999 -9999 -9999 -9999 -9999 -9999 -9999 -9999 -9999 -9999 -9999 -9999 -9999 -9999 -9999 -9999 -9999 -9999 -9999 -9999 -9999 -9999 -9999 -9999 -9999 -9999 -9999 -9999 -9999 -9999 -9999 -9999 -9999 -9999 8.298 8.271 8.232 8.247 8.404 8.272 8.332 8.398 8.746 8.37 8.421 8.252 8.208 8.524 8.533 8.595 8.398 8.421 8.569 8.461 9.373 9.759 9.814 8.646 7.437 7.437 7.437 8.943 7.437 6.377 4.797 4.681 6.763 4.064 4.295 7.117 6.303 7.985 8.251 8.159 8.259 8.154 8.004 8.004 8.004 7.911 8.065 7.849 8.085 7.954 7.877 7.685 7.685 7.817 7.908 7.908 8.018 8.373 8.122 7.899 7.899 7.899 8.192 7.975 8.519 8.049 7.74 7.858 7.532 7.036 7.268 7.68 7.816 7.957 8.189 8.265 8.517 8.274 8.348 8.144 8.445 8.399 8.457 8.459 8.333 8.287 8.506 8.55 8.496 8.534 8.66 8.391 8.416 8.345 8.261 8.066 7.985 7.965 7.885 8.141 8.194 7.804 8.085 7.838 8.191 8.25 7.547 7.241 7.166 6.839 6.38 6.491 6.072 5.823 5.823 5.78 5.901 5.939 6.381 6.657 6.427 6.696 6.939 6.951 6.824 6.682 6.526 6.514 6.514 6.514 6.514 7.776 7.958 7.792 7.56 7.645 7.072 7.072 7.61 12.141 11.969 11.643 11.316 10.935 10.446 7.464 7.066 7.066 7.163 7.513 7.458 7.594 7.645 8.113 7.703 7.697 7.576 7.61 7.591 7.74 7.596 7.497 7.45 7.527 7.55 7.647 7.56 7.695 7.629 7.45 7.425 7.343 7.59 7.382 7.43 7.537 7.655 7.522 7.619 7.771 7.635 7.635 7.787 7.635 7.975 8.232 7.389 7.309 7.309 7.309 7.309 7.309 7.309 7.309 7.428 6.848 6.711 6.619 6.23 -9999 -9999 -9999 -9999 -9999 -9999 -9999 -9999 -9999 -9999 -9999 -9999 -9999 -9999 -9999 -9999 -9999 -9999 -9999 -9999 -9999 -9999 -9999 -9999 -9999 -9999 -9999 -9999 -9999 -9999 -9999 -9999 -9999 -9999 -9999 -9999 -9999
-9999 -9999 -9999 -9999 -9999 -9999 -9999 -9999 -9999 -9999 -9999 -9999 -9999 -9999 -9999 -9999 -9999 -9999 -9999 -9999 -9999 -9999 -9999 -9999 -9999 -9999 -9999 -9999 -9999 -9999 -9999 -9999 -9999 -9999 -9999 -9999 -9999 -9999 -9999 -9999 -9999 -9999 -9999 -9999 -9999 -9999 -9999 -9999 -9999 -9999 -9999 -9999 -9999 -9999 -9999 -9999 -9999 -9999 -9999 -9999 -9999 -9999 -9999 -9999 -9999 -9999 -9999 -9999 -9999 -9999 -9999 -9999 -9999 -9999 -9999 -9999 -9999 -9999 -9999 -9999 -9999 -9999 -9999 -9999 -9999 -9999 -9999 -9999 -9999 -9999 -9999 -9999 -9999 -9999 -9999 8.205 8.21 8.424 8.38 8.311 8.272 8.477 8.543 8.706 8.344 8.344 8.29 8.208 8.744 8.42 8.517 8.416 8.341 8.425 8.489 8.676 10.034 8.401 7.914 7.437 7.437 7.437 7.437 7.919 6.57 6.159 4.629 4.064 4.064 6.632 6.252 5.983 7.754 8.233 8.352 8.38 8.353 8.268 8.075 8.035 7.894 8.195 7.818 7.95 7.932 7.825 7.71 7.685 7.685 7.935 8.06 7.924 8.066 7.899 7.899 7.899 8.491 7.975 8.129 8.038 7.915 7.89 7.787 7.486 7.185 6.945 7.447 7.816 8.019 8.154 8.214 8.117 8.473 8.329 8.034 8.128 8.117 8.299 8.334 8.232 8.298 8.363 8.624 8.455 8.589 8.44 8.289 8.382 8.307 8.036 8.049 8.036 7.935 8.006 8.115 8.181 7.938 8.134 7.998 8.256 8.07 7.625 7.433 7.288 6.946 6.58 6.789 6.209 6.011 5.924 5.664 5.664 5.765 6.117 6.584 6.207 6.444 6.632 6.644 6.717 6.53 6.525 6.599 6.514 6.622 6.924 7.444 7.444 7.444 8.176 9.319 7.072 7.072 12.886 12.546 12.343 8.581 7.577 6.915 7.254 7.151 7.169 7.125 7.027 7.54 7.526 7.525 7.474 7.588 7.668 7.722 7.623 7.545 7.545 7.495 7.45 7.45 7.45 7.45 7.548 7.52 7.581 7.735 7.604 7.356 7.4 7.343 7.434 7.451 7.382 7.596 7.824 8.007 7.673 7.662 7.898 7.635 7.635 7.635 7.649 8.12 7.811 7.708 7.607 7.549 7.427 7.319 7.309 7.615 7.464 7.307 7.291 7.111 6.788 -9999 -9999 -9999 -9999 -9999 -9999 -9999 -9999 -9999 -9999 -9999 -9999 -9999 -9999 -9999 -9999 -9999 -9999 -9999 -9999 -9999 -9999 -9999 -9999 -9999 -9999 -9999 -9999 -9999 -9999 -9999 -9999 -9999 -9999 -9999 -9999 -9999
-9999 -9999 -9999 -9999 -9999 -9999 -9999 -9999 -9999 -9999 -9999 -9999 -9999 -9999 -9999 -9999 -9999 -9999 -9999 -9999 -9999 -9999 -9999 -9999 -9999 -9999 -9999 -9999 -9999 -9999 -9999 -9999 -9999 -9999 -9999 -9999 -9999 -9999 -9999 -9999 -9999 -9999 -9999 -9999 -9999 -9999 -9999 -9999 -9999 -9999 -9999 -9999 -9999 -9999 -9999 -9999 -9999 -9999 -9999 -9999 -9999 -9999 -9999 -9999 -9999 -9999 -9999 -9999 -9999 -9999 -9999 -9999 -9999 -9999 -9999 -9999 -9999 -9999 -9999 -9999 -9999 -9999 -9999 -9999 -9999 -9999 -9999 -9999 -9999 -9999 -9999 -9999 -9999 -9999 -9999 8.274 8.212 8.193 8.283 8.29 8.272 8.356 8.413 8.42 8.445 8.42 8.481 8.208 8.722 8.365 8.297 8.304 8.399 8.455 8.482 8.166 8.025 8.594 8.154 7.658 7.492 7.437 7.437 8.502 7.237 6.402 4.716 4.064 5.922 6.373 5.983 6.917 7.568 7.568 7.599 8.117 8.054 8.271 8.295 8.19 7.903 7.671 7.671 7.859 8.038 7.685 7.685 7.685 7.685 7.893 7.793 8.185 7.899 7.899 8.224 8.094 8.008 8.074 7.915 8.029 8.072 7.849 7.834 7.701 7.326 6.91 7.316 7.685 7.836 8.05 8.032 8.012 8.18 7.91 7.985 7.955 8.424 8.18 8.348 7.969 8.398 8.257 8.651 8.37 8.739 8.605 8.289 8.316 8.11 8.18 8.036 8.296 8.152 8.126 8.136 8.405 7.97 8.138 8.237 8.195 8.025 7.826 7.572 7.461 7.36 7.097 6.767 6.487 6.34 6.216 5.741 5.664 5.664 5.664 6.592 6.086 6.357 6.462 6.447 6.692 6.473 6.495 6.382 6.382 6.382 7.374 10.654 11.405 12.006 12.622 12.272 7.072 7.072 7.072 7.072 7.072 7.072 7.158 7.228 6.915 6.915 7.027 7.003 6.985 7.387 7.435 7.374 7.496 7.632 7.637 7.693 7.852 7.863 7.687 7.45 7.45 7.45 7.45 7.45 7.548 7.52 7.64 7.576 7.49 7.427 7.356 7.343 7.592 7.575 7.576 7.649 7.475 7.89 7.81 7.736 7.665 7.776 7.719 7.635 7.635 7.857 7.897 7.745 7.651 7.577 7.461 7.513 7.745 7.691 7.54 7.566 7.283 7.063 6.905 6.465 -9999 -9999 -9999 -9999 -9999 -9999 -9999 -9999 -9999 -9999 -9999 -9999 -9999 -9999 -9999 -9999 -9999 -9999 -9999 -9999 -9999 -9999 -9999 -9999 -9999 -9999 -9999 -9999 -9999 -9999 -9999 -9999 -9999 -9999 -9999 -9999
-9999 -9999 -9999 -9999 -9999 -9999 -9999 -9999 -9999 -9999 -9999 -9999 -9999 -9999 -9999 -9999 -9999 -9999 -9999 -9999 -9999 -9999 -9999 -9999 -9999 -9999 -9999 -9999 -9999 -9999 -9999 -9999 -9999 -9999 -9999 -9999 -9999 -9999 -9999 -9999 -9999 -9999 -9999 -9999 -9999 -9999 -9999 -9999 -9999 -9999 -9999 -9999 -9999 -9999 -9999 -9999 -9999 -9999 -9999 -9999 -9999 -9999 -9999 -9999 -9999 -9999 -9999 -9999 -9999 -9999 -9999 -9999 -9999 -9999 -9999 -9999 -9999 -9999 -9999 -9999 -9999 -9999 -9999 -9999 -9999 -9999 -9999 -9999 -9999 -9999 -9999 -9999 -9999 -9999 -9999 8.025 8.29 8.11 8.137 8.326 8.272 8.423 8.373 8.436 8.365 8.564 8.415 8.208 8.394 8.456 8.297 8.421 8.8 9.014 8.537 8.399 7.937 7.94 8.106 7.989 7.944 7.437 7.437 8.002 7.956 6.848 4.36 4.064 6.003 6.485 5.983 6.841 7.642 8.187 8.343 8.219 8.014 7.896 7.896 8.003 7.671 7.926 7.671 7.778 7.75 7.743 7.685 7.789 7.926 7.793 7.793 7.899 8.327 8.156 8.006 8.006 8.416 8.067 7.734 8.025 7.997 7.76 7.84 7.558 7.113 6.91 7.005 7.445 7.749 7.843 7.817 7.876 8.089 7.805 7.925 7.985 7.953 7.904 8.114 7.969 7.997 8.319 8.527 8.37 8.587 8.522 8.24 8.413 8.74 8.681 8.454 8.617 8.168 8.126 8.229 8.526 8.01 8.165 8.197 8.065 7.899 8.123 8.058 7.729 7.463 7.097 6.681 6.623 6.414 6.2 5.664 5.664 5.664 5.664 5.664 5.759 6.194 6.351 6.35 6.612 6.107 6.234 7.671 8.531 9.382 10.303 10.84 11.316 11.633 8.69 7.072 7.072 7.072 7.456 7.599 7.242 7.072 7.219 7.184 7.229 6.915 7.023 7.033 6.962 7.303 7.294 7.324 7.275 7.617 7.583 7.6 7.676 7.631 7.694 7.461 7.45 7.45 7.45 7.557 7.52 7.595 7.595 7.452 7.51 7.343 7.343 7.343 7.602 7.575 7.475 7.475 7.66 7.857 7.631 7.738 7.68 7.695 7.779 7.729 7.639 8.027 7.699 7.638 7.58 7.799 7.534 7.389 7.58 7.522 7.433 7.421 7.212 7.133 6.954 6.139 5.551 -9999 -9999 -9999 -9999 -9999 -9999 -9999 -9999 -9999 -9999 -9999 -9999 -9999 -9999 -9999 -9999 -9999 -9999 -9999 -9999 -9999 -9999 -9999 -9999 -9999 -9999 -9999 -9999 -9999 -9999 -9999 -9999 -9999 -9999 -9999
-9999 -9999 -9999 -9999 -9999 -9999 -9999 -9999 -9999 -9999 -9999 -9999 -9999 -9999 -9999 -9999 -9999 -9999 -9999 -9999 -9999 -9999 -9999 -9999 -9999 -9999 -9999 -9999 -9999 -9999 -9999 -9999 -9999 -9999 -9999 -9999 -9999 -9999 -9999 -9999 -9999 -9999 -9999 -9999 -9999 -9999 -9999 -9999 -9999 -9999 -9999 -9999 -9999 -9999 -9999 -9999 -9999 -9999 -9999 -9999 -9999 -9999 -9999 -9999 -9999 -9999 -9999 -9999 -9999 -9999 -9999 -9999 -9999 -9999 -9999 -9999 -9999 -9999 -9999 -9999 -9999 -9999 -9999 -9999 -9999 -9999 -9999 -9999 -9999 -9999 -9999 -9999 -9999 -9999 -9999 7.975 8.02 8.083 8.093 8.037 7.97 8.255 8.168 8.239 8.379 8.273 8.405 8.408 8.445 8.297 8.399 8.366 8.769 8.875 8.501 8.43 7.937 8.254 7.966 8.024 8.308 8.06 7.437 7.437 8.722 7.684 6.86 5.298 4.064 5.983 6.279 6.197 7.167 7.592 7.983 8.096 8.216 8.11 8.091 7.896 7.798 7.76 7.671 7.72 7.716 7.778 7.762 7.685 7.689 8.208 7.844 8.187 8.078 8.088 8.264 8.468 8.009 7.734 7.902 7.937 7.883 7.756 7.807 7.463 7.072 7.078 6.91 7.234 7.507 7.707 7.744 7.706 7.829 7.617 7.984 7.974 7.895 8.042 7.909 7.918 8.371 8.099 8.355 8.485 9.206 8.589 8.24 8.514 8.526 8.594 8.442 8.442 8.684 8.667 8.205 8.231 8.394 8.268 8.191 8.32 8.148 8.078 8.136 7.934 7.858 7.25 7.145 6.738 6.482 6.402 5.807 5.664 5.664 5.664 5.664 5.664 5.664 5.664 5.823 6.107 6.58 7.277 7.828 8.396 8.946 7.838 6.327 6.327 7.045 7.459 7.597 7.257 7.166 7.907 7.83 7.299 6.911 6.859 7.022 6.915 7.026 7.094 7.014 6.962 7.22 7.209 7.085 8.161 7.583 7.61 7.615 7.621 7.61 7.479 7.617 7.454 7.45 7.511 7.45 7.49 7.355 7.462 7.35 7.343 7.497 7.424 7.5 7.469 7.423 7.423 7.827 7.742 7.899 7.602 7.791 7.71 7.602 7.655 7.609 7.602 7.884 7.693 7.602 7.637 7.693 7.75 7.343 7.5 7.482 7.275 7.308 7.178 7.112 6.551 5.69 5.273 -9999 -9999 -9999 -9999 -9999 -9999 -9999 -9999 -9999 -9999 -9999 -9999 -9999 -9999 -9999 -9999 -9999 -9999 -9999 -9999 -9999 -9999 -9999 -9999 -9999 -9999 -9999 -9999 -9999 -9999 -9999 -9999 -9999 -9999 -9999
-9999 -9999 -9999 -9999 -9999 -9999 -9999 -9999 -9999 -9999 -9999 -9999 -9999 -9999 -9999 -9999 -9999 -9999 -9999 -9999 -9999 -9999 -9999 -9999 -9999 -9999 -9999 -9999 -9999 -9999 -9999 -9999 -9999 -9999 -9999 -9999 -9999 -9999 -9999 -9999 -9999 -9999 -9999 -9999 -9999 -9999 -9999 -9999 -9999 -9999 -9999 -9999 -9999 -9999 -9999 -9999 -9999 -9999 -9999 -9999 -9999 -9999 -9999 -9999 -9999 -9999 -9999 -9999 -9999 -9999 -9999 -9999 -9999 -9999 -9999 -9999 -9999 -9999 -9999 -9999 -9999 -9999 -9999 -9999 -9999 -9999 -9999 -9999 -9999 -9999 -9999 -9999 -9999 -9999 -9999 7.97 7.97 7.97 7.97 7.97 7.97 7.97 8.153 8.153 8.153 8.153 8.395 8.284 8.258 8.237 8.453 8.314 8.376 8.391 8.389 8.281 7.937 8.254 7.937 8.211 8.433 8.375 7.437 7.437 9.607 8.493 7.68 5.041 4.719 4.064 6.119 6.322 6.318 6.48 6.86 7.717 7.873 7.865 8.004 7.849 7.558 7.606 7.707 7.658 7.721 7.612 7.59 7.508 7.93 7.418 7.418 7.881 7.843 8.08 8.483 8.005 8.049 7.515 7.76 7.939 7.885 7.749 7.906 7.53 7.114 7.11 6.91 6.957 6.957 6.957 6.957 7.18 7.214 7.298 7.298 7.303 7.303 7.303 7.48 8.078 8.468 9.041 8.646 8.611 8.589 8.416 8.24 8.506 8.48 8.58 8.707 8.724 8.733 8.637 8.53 8.433 8.457 8.491 8.711 8.069 8.035 7.989 7.928 8.071 7.836 7.506 7.188 6.984 6.597 6.519 6.31 6.011 5.664 5.682 5.664 5.664 5.807 6.086 6.164 6.137 6.284 6.08 5.848 5.848 6.037 6.327 6.937 6.783 7.001 7.425 7.549 7.303 7.257 7.519 7.232 7.008 6.745 6.666 6.803 6.7 7.066 6.964 6.988 6.932 7.129 7.072 7.264 7.3 7.505 7.521 7.35 7.389 7.386 7.405 7.391 7.455 7.49 7.469 7.47 7.45 7.29 7.29 7.29 7.29 7.294 7.782 7.708 7.423 7.7 7.423 7.849 7.793 7.831 7.727 7.602 7.602 7.717 7.602 7.602 7.699 7.602 7.602 7.602 7.658 7.366 7.343 7.343 7.343 7.343 6.975 6.915 6.787 6.468 5.75 5.244 5.024 5.108 -9999 -9999 -9999 -9999 -9999 -9999 -9999 -9999 -9999 -9999 -9999 -9999 -9999 -9999 -9999 -9999 -9999 -9999 -9999 -9999 -9999 -9999 -9999 -9999 -9999 -9999 -9999 -9999 -9999 -9999 -9999 -9999 -9999 -9999
-9999 -9999 -9999 -9999 -9999 -9999 -9999 -9999 -9999 -9999 -9999 -9999 -9999 -9999 -9999 -9999 -9999 -9999 -9999 -9999 -9999 -9999 -9999 -9999 -9999 -9999 -9999 -9999 -9999 -9999 -9999 -9999 -9999 -9999 -9999 -9999 -9999 -9999 -9999 -9999 -9999 -9999 -9999 -9999 -9999 -9999 -9999 -9999 -9999 -9999 -9999 -9999 -9999 -9999 -9999 -9999 -9999 -9999 -9999 -9999 -9999 -9999 -9999 -9999 -9999 -9999 -9999 -9999 -9999 -9999 -9999 -9999 -9999 -9999 -9999 -9999 -9999 -9999 -9999 -9999 -9999 -9999 -9999 -9999 -9999 -9999 -9999 -9999 -9999 -9999 -9999 -9999 -9999 -9999 -9999 8.081 8.058 7.97 8.094 8.053 7.97 8.083 8.161 8.396 8.244 8.359 8.327 8.21 8.481 8.237 8.355 8.279 8.488 8.457 8.312 8.247 7.937 7.937 7.937 8.126 8.366 8.293 7.649 7.437 9.165 9.399 8.055 8.102 4.857 4.064 4.064 6.192 6.484 7.515 7.909 7.965 7.881 7.569 7.847 7.777 7.532 7.467 7.568 7.642 7.491 7.463 8.156 7.278 7.508 7.504 7.418 7.696 7.671 7.958 8.214 8.025 7.92 7.476 7.705 7.989 7.868 7.767 7.69 7.368 7.401 6.872 6.837 7.11 7.363 7.164 7.232 7.278 7.396 7.533 7.571 7.825 7.779 7.941 7.969 7.741 8.073 8.169 8.269 8.231 8.221 8.24 8.434 8.454 8.731 8.568 8.507 8.534 8.631 8.57 8.451 8.328 8.281 8.263 8.182 7.972 8.028 7.869 7.964 7.797 7.664 7.407 7.058 6.951 6.18 6.075 6.056 6.229 6.185 6.101 5.964 5.764 5.664 5.464 5.377 5.377 5.604 5.641 5.909 6.113 5.977 6.373 6.755 6.921 6.952 7.206 7.221 7.267 6.949 7.149 6.974 6.957 6.654 6.584 6.567 6.581 6.729 6.713 6.855 6.781 6.942 6.942 6.991 7.258 7.346 7.339 7.384 7.414 7.439 7.312 7.312 7.286 7.479 7.346 7.346 7.346 7.29 7.29 7.341 7.29 7.486 7.567 7.575 7.446 7.423 7.423 7.771 7.615 7.68 7.855 7.835 7.697 7.73 7.741 7.849 7.79 7.844 7.975 7.78 7.605 7.699 7.404 7.555 7.613 7.642 7.309 6.729 6.31 5.53 5.011 4.881 4.655 4.8 -9999 -9999 -9999 -9999 -9999 -9999 -9999 -9999 -9999 -9999 -9999 -9999 -9999 -9999 -9999 -9999 -9999 -9999 -9999 -9999 -9999 -9999 -9999 -9999 -9999 -9999 -9999 -9999 -9999 -9999 -9999 -9999 -9999 -9999
-9999 -9999 -9999 -9999 -9999 -9999 -9999 -9999 -9999 -9999 -9999 -9999 -9999 -9999 -9999 -9999 -9999 -9999 -9999 -9999 -9999 -9999 -9999 -9999 -9999 -9999 -9999 -9999 -9999 -9999 -9999 -9999 -9999 -9999 -9999 -9999 -9999 -9999 -9999 -9999 -9999 -9999 -9999 -9999 -9999 -9999 -9999 -9999 -9999 -9999 -9999 -9999 -9999 -9999 -9999 -9999 -9999 -9999 -9999 -9999 -9999 -9999 -9999 -9999 -9999 -9999 -9999 -9999 -9999 -9999 -9999 -9999 -9999 -9999 -9999 -9999 -9999 -9999 -9999 -9999 -9999 -9999 -9999 -9999 -9999 -9999 -9999 -9999 -9999 -9999 -9999 -9999 -9999 -9999 -9999 -9999 7.944 8.173 7.944 8.048 8.07 8.232 8.253 8.394 8.303 8.376 8.33 8.21 8.458 8.21 8.326 8.297 8.279 8.246 8.332 8.164 7.937 8.142 8.044 7.937 8.278 8.373 7.906 8.237 7.728 10.479 9.46 6.614 5.05 4.988 4.064 6.329 7.077 7.693 7.97 7.991 7.869 7.475 7.706 7.684 7.375 7.517 7.571 7.611 7.493 7.319 7.085 7.484 7.518 7.486 7.362 7.584 8.008 8.069 8.069 8.238 8.052 7.438 7.687 8.12 7.932 7.778 7.644 7.529 7.021 6.9 6.983 6.837 6.701 6.701 6.681 6.692 6.78 6.84 6.865 6.978 7.034 7.12 7.346 7.497 8.078 8.101 8.106 8.098 8.167 8.19 8.423 8.325 8.484 8.507 8.645 8.592 8.579 8.426 8.331 8.223 8.073 8.093 8.043 7.952 7.776 7.675 7.703 7.662 7.304 7.058 7.122 7.081 7.06 6.928 6.803 6.439 6.133 5.762 5.619 5.313 5.305 5.373 5.605 5.657 5.653 5.674 5.631 5.631 5.631 6.228 6.355 6.469 6.659 6.758 6.978 6.791 6.652 6.955 6.8 7.018 6.515 6.571 6.567 6.595 6.67 7.058 6.801 6.729 7.119 7.023 7.088 7.198 7.289 7.42 7.409 7.309 7.519 7.408 7.345 7.286 7.614 7.638 7.499 7.594 7.835 7.893 7.692 7.506 7.281 7.588 7.281 7.381 7.679 7.587 7.478 7.652 7.631 7.624 7.848 7.72 7.814 7.928 7.972 7.672 7.93 8.047 7.707 7.51 7.51 7.618 7.545 7.677 7.532 7.249 6.336 5.601 4.95 4.485 4.36 4.36 4.767 5.162 -9999 -9999 -9999 -9999 -9999 -9999 -9999 -9999 -9999 -9999 -9999 -9999 -9999 -9999 -9999 -9999 -9999 -9999 -9999 -9999 -9999 -9999 -9999 -9999 -9999 -9999 -9999 -9999 -9999 -9999 -9999 -9999 -9999
-9999 -9999 -9999 -9999 -9999 -9999 -9999 -9999 -9999 -9999 -9999 -9999 -9999 -9999 -9999 -9999 -9999 -9999 -9999 -9999 -9999 -9999 -9999 -9999 -9999 -9999 -9999 -9999 -9999 -9999 -9999 -9999 -9999 -9999 -9999 -9999 -9999 -9999 -9999 -9999 -9999 -9999 -9999 -9999 -9999 -9999 -9999 -9999 -9999 -9999 -9999 -9999 -9999 -9999 -9999 -9999 -9999 -9999 -9999 -9999 -9999 -9999 -9999 -9999 -9999 -9999 -9999 -9999 -9999 -9999 -9999 -9999 -9999 -9999 -9999 -9999 -9999 -9999 -9999 -9999 -9999 -9999 -9999 -9999 -9999 -9999 -9999 -9999 -9999 -9999 -9999 -9999 -9999 -9999 -9999 -9999 -9999 7.944 8.101 8.043 8.227 8.09 8.243 8.286 8.311 8.367 8.285 8.301 8.21 8.21 8.21 8.21 8.21 8.218 8.269 8.105 7.937 8.233 8.174 7.937 8.179 8.323 8.196 9.252 7.43 11.196 7.745 4.983 5.009 4.064 5.01 6.922 7.304 7.998 8.024 7.731 7.828 7.741 7.375 7.375 7.375 7.454 7.394 7.639 7.164 7.085 7.167 7.419 7.589 7.439 7.362 7.626 7.795 7.63 7.868 8.677 8.049 7.421 7.519 7.869 7.998 7.977 7.529 7.38 7.406 7.237 7.103 6.872 6.935 6.805 6.677 6.682 6.706 6.769 6.837 6.882 6.942 7.026 7.119 7.337 8.151 7.985 7.838 8.222 8.286 8.349 8.081 8.222 8.46 8.357 8.359 8.453 8.482 8.355 8.19 8.201 8.005 7.811 7.921 7.874 7.55 7.434 7.386 7.386 7.511 7.64 7.641 7.339 6.985 6.671 6.289 6.133 6.214 6.048 5.939 5.648 5.087 5.28 5.528 5.447 5.722 5.631 5.865 5.844 5.901 6.096 5.982 6.253 6.584 6.645 6.567 6.487 6.343 6.565 6.542 6.503 6.43 6.477 6.619 6.579 6.626 6.651 6.722 6.67 7.148 7.063 7.103 7.391 7.232 7.35 7.377 7.306 7.42 7.268 7.281 7.46 7.462 7.691 7.695 7.37 7.857 7.323 7.323 7.685 7.285 7.281 7.387 7.451 7.45 7.39 7.484 7.529 7.624 7.571 7.812 7.674 7.592 7.654 7.58 7.821 7.762 7.789 7.612 7.575 7.569 7.629 7.334 7.471 7.346 6.73 6.001 5.047 4.398 4.36 4.589 4.745 5.096 5.262 5.533 -9999 -9999 -9999 -9999 -9999 -9999 -9999 -9999 -9999 -9999 -9999 -9999 -9999 -9999 -9999 -9999 -9999 -9999 -9999 -9999 -9999 -9999 -9999 -9999 -9999 -9999 -9999 -9999 -9999 -9999 -9999 -9999
-9999 -9999 -9999 -9999 -9999 -9999 -9999 -9999 -9999 -9999 -9999 -9999 -9999 -9999 -9999 -9999 -9999 -9999 -9999 -9999 -9999 -9999 -9999 -9999 -9999 -9999 -9999 -9999 -9999 -9999 -9999 -9999 -9999 -9999 -9999 -9999 -9999 -9999 -9999 -9999 -9999 -9999 -9999 -9999 -9999 -9999 -9999 -9999 -9999 -9999 -9999 -9999 -9999 -9999 -9999 -9999 -9999 -9999 -9999 -9999 -9999 -9999 -9999 -9999 -9999 -9999 -9999 -9999 -9999 -9999 -9999 -9999 -9999 -9999 -9999 -9999 -9999 -9999 -9999 -9999 -9999 -9999 -9999 -9999 -9999 -9999 -9999 -9999 -9999 -9999 -9999 -9999 -9999 -9999 -9999 -9999 -9999 -9999 8.209 7.934 7.934 8.057 8.285 8.293 8.249 8.266 8.189 7.938 8.329 8.382 8.383 8.436 8.34 8.518 8.351 8.082 8.036 8.353 8.354 7.937 8.129 8.15 8.009 7.015 6.597 5.31 4.698 4.462 4.585 4.064 6.844 7.297 7.533 8.057 7.892 7.373 7.622 7.485 7.375 7.419 7.567 7.786 7.413 7.331 7.247 7.163 7.085 7.49 7.643 7.438 7.362 7.428 7.559 7.74 7.583 7.496 7.476 7.421 7.461 7.418 7.457 7.575 7.692 7.78 7.717 7.468 7.459 7.351 6.889 6.048 5.421 5.421 5.421 6.175 6.266 7.042 6.73 7.129 7.754 7.828 7.537 7.737 7.856 7.847 8.021 8.211 7.831 8.072 8.242 8.295 8.188 8.093 8.045 8.152 8.12 8.021 7.693 7.471 7.471 7.471 7.471 7.659 7.762 7.635 7.477 7.267 6.742 6.74 6.74 6.72 6.892 6.673 6.555 6.502 6.287 5.754 5.221 4.834 5.13 4.927 5.315 5.499 5.464 5.924 5.844 5.939 6.108 6.133 6.159 6.434 6.548 6.508 6.077 6.225 6.335 6.426 6.329 6.421 6.706 6.87 6.664 6.721 6.651 6.72 6.932 7.06 7.143 7.134 7.226 7.325 7.346 7.348 7.26 7.268 7.266 7.358 7.358 7.613 7.358 7.358 7.699 7.54 7.323 7.418 7.353 7.393 7.244 7.265 7.387 7.401 7.426 7.439 7.796 7.503 7.811 7.778 7.467 7.597 7.517 7.55 7.609 7.519 7.519 7.519 7.574 7.709 7.487 7.301 7.02 6.233 5.307 4.608 4.197 4.071 4.529 5.138 5.931 6.329 6.542 -9999 -9999 -9999 -9999 -9999 -9999 -9999 -9999 -9999 -9999 -9999 -9999 -9999 -9999 -9999 -9999 -9999 -9999 -9999 -9999 -9999 -9999 -9999 -9999 -9999 -9999 -9999 -9999 -9999 -9999 -9999 -9999
-9999 -9999 -9999 -9999 -9999 -9999 -9999 -9999 -9999 -9999 -9999 -9999 -9999 -9999 -9999 -9999 -9999 -9999 -9999 -9999 -9999 -9999 -9999 -9999 -9999 -9999 -9999 -9999 -9999 -9999 -9999 -9999 -9999 -9999 -9999 -9999 -9999 -9999 -9999 -9999 -9999 -9999 -9999 -9999 -9999 -9999 -9999 -9999 -9999 -9999 -9999 -9999 -9999 -9999 -9999 -9999 -9999 -9999 -9999 -9999 -9999 -9999 -9999 -9999 -9999 -9999 -9999 -9999 -9999 -9999 -9999 -9999 -9999 -9999 -9999 -9999 -9999 -9999 -9999 -9999 -9999 -9999 -9999 -9999 -9999 -9999 -9999 -9999 -9999 -9999 -9999 -9999 -9999 -9999 -9999 -9999 -9999 -9999 -9999 7.982 7.934 8.106 8.179 8.23 8.205 8.329 8.366 7.938 8.355 8.329 8.482 8.51 8.349 8.507 8.484 8.067 8.18 8.568 8.469 7.937 8.042 8.175 7.447 4.064 4.064 4.076 4.064 4.101 4.064 5.066 6.49 7.523 7.749 7.741 7.862 7.742 7.315 7.634 7.512 7.375 7.28 7.39 7.357 7.375 7.261 7.085 7.194 7.373 7.551 7.47 7.362 7.429 7.428 7.612 7.651 7.617 7.567 7.314 7.17 7.1 7.1 7.1 7.1 7.097 6.991 6.856 6.648 6.441 6.281 6.006 5.757 5.421 5.421 6.13 6.257 6.492 6.953 7.213 7.936 7.77 7.537 7.545 7.693 7.779 7.93 7.995 6.962 8.148 8.527 8.362 8.034 7.951 7.683 7.683 7.683 7.683 7.564 7.623 7.748 7.658 7.512 7.378 7.325 7.348 7.442 7.22 6.956 7.03 6.767 7.048 7.029 6.919 6.524 6.306 5.891 5.86 5.09 4.506 4.927 5.078 5.399 5.315 5.617 5.899 6.05 6.295 6.538 6.667 6.724 6.464 6.422 6.292 6.03 6.065 6.119 6.233 6.347 6.451 6.448 6.936 6.847 6.93 6.858 6.682 6.82 7.185 7.156 7.134 7.173 7.158 7.191 7.191 7.248 7.266 7.379 7.515 7.358 7.358 7.358 7.41 7.387 7.302 7.342 7.499 7.244 7.244 7.244 7.276 7.244 7.358 7.336 7.333 7.446 7.727 7.776 7.474 7.467 7.467 7.467 7.531 7.519 7.519 7.572 7.519 7.738 7.487 7.641 7.213 6.533 5.7 4.864 3.786 3.895 4.044 4.683 5.743 6.893 7.29 7.455 7.409 -9999 -9999 -9999 -9999 -9999 -9999 -9999 -9999 -9999 -9999 -9999 -9999 -9999 -9999 -9999 -9999 -9999 -9999 -9999 -9999 -9999 -9999 -9999 -9999 -9999 -9999 -9999 -9999 -9999 -9999 -9999
-9999 -9999 -9999 -9999 -9999 -9999 -9999 -9999 -9999 -9999 -9999 -9999 -9999 -9999 -9999 -9999 -9999 -9999 -9999 -9999 -9999 -9999 -9999 -9999 -9999 -9999 -9999 -9999 -9999 -9999 -9999 -9999 -9999 -9999 -9999 -9999 -9999 -9999 -9999 -9999 -9999 -9999 -9999 -9999 -9999 -9999 -9999 -9999 -9999 -9999 -9999 -9999 -9999 -9999 -9999 -9999 -9999 -9999 -9999 -9999 -9999 -9999 -9999 -9999 -9999 -9999 -9999 -9999 -9999 -9999 -9999 -9999 -9999 -9999 -9999 -9999 -9999 -9999 -9999 -9999 -9999 -9999 -9999 -9999 -9999 -9999 -9999 -9999 -9999 -9999 -9999 -9999 -9999 -9999 -9999 -9999 -9999 -9999 -9999 -9999 7.934 7.953 7.953 8.071 8.284 8.281 8.202 7.938 8.366 8.361 8.39 8.349 8.399 8.419 8.425 8.059 8.341 8.542 8.424 8.219 7.937 7.883 4.064 4.064 4.064 4.064 4.064 4.064 4.064 5.096 6.628 7.37 7.775 7.077 7.191 7.634 7.67 7.315 8.04 7.079 6.863 6.897 7.007 7.161 7.243 7.102 5.993 10.415 7.358 7.132 7.167 7.614 7.705 7.53 7.351 7.289 7.49 7.356 7.353 7.312 7.373 7.427 7.76 7.654 7.668 7.318 6.885 7.006 6.176 6.083 6.086 5.421 5.421 6.276 6.568 6.551 7.459 7.781 7.689 8.024 7.653 7.626 7.989 8.12 8.268 8.253 6.384 7.484 7.169 7.169 7.834 10.132 9.683 9.175 8.682 8.098 7.72 7.465 7.283 6.92 7.283 7.444 7.398 7.297 7.34 6.939 6.988 7.192 6.99 7.264 6.956 6.933 6.447 6.313 5.856 5.779 4.338 4.639 5.109 5.448 5.822 5.957 6.034 5.617 6.178 6.34 6.581 6.771 6.735 6.694 6.434 6.03 6.03 6.055 6.165 6.322 6.316 6.438 6.455 6.61 6.75 6.84 6.725 7.09 7.202 7.163 7.369 7.134 7.134 7.232 7.297 7.299 7.315 7.415 7.485 7.558 7.481 7.358 7.654 7.364 7.321 7.355 7.302 7.308 7.368 7.244 7.353 7.344 7.244 7.244 7.415 7.333 7.444 7.595 7.56 7.467 7.877 7.754 7.598 7.745 7.54 7.571 7.566 7.519 7.699 7.508 7.612 7.185 6.389 4.938 4.111 3.403 3.712 4.483 5.17 6.403 7.22 7.722 7.828 7.69 -9999 -9999 -9999 -9999 -9999 -9999 -9999 -9999 -9999 -9999 -9999 -9999 -9999 -9999 -9999 -9999 -9999 -9999 -9999 -9999 -9999 -9999 -9999 -9999 -9999 -9999 -9999 -9999 -9999 -9999 -9999
-9999 -9999 -9999 -9999 -9999 -9999 -9999 -9999 -9999 -9999 -9999 -9999 -9999 -9999 -9999 -9999 -9999 -9999 -9999 -9999 -9999 -9999 -9999 -9999 -9999 -9999 -9999 -9999 -9999 -9999 -9999 -9999 -9999 -9999 -9999 -9999 -9999 -9999 -9999 -9999 -9999 -9999 -9999 -9999 -9999 -9999 -9999 -9999 -9999 -9999 -9999 -9999 -9999 -9999 -9999 -9999 -9999 -9999 -9999 -9999 -9999 -9999 -9999 -9999 -9999 -9999 -9999 -9999 -9999 -9999 -9999 -9999 -9999 -9999 -9999 -9999 -9999 -9999 -9999 -9999 -9999 -9999 -9999 -9999 -9999 -9999 -9999 -9999 -9999 -9999 -9999 -9999 -9999 -9999 -9999 -9999 -9999 -9999 -9999 -9999 -9999 7.955 7.977 7.979 8.173 8.213 8.314 7.938 8.379 8.43 8.504 8.387 8.474 8.539 8.411 7.98 8.387 8.385 8.353 8.09 7.737 6.724 4.064 4.064 4.064 4.064 4.064 4.076 4.656 4.467 6.221 7.018 6.634 7.63 7.776 7.633 7.349 6.935 6.672 6.578 6.424 6.59 6.789 7.305 7.348 7.023 5.886 7 7.981 7.132 7.136 7.309 7.346 7.407 7.288 7.369 7.312 7.358 7.411 7.421 7.516 7.397 7.75 7.303 7.036 7.036 6.885 7.041 5.973 6.27 6.164 5.421 5.421 6.495 6.573 6.518 7.404 7.724 7.833 7.822 7.863 7.956 8.116 7.972 7.687 6.384 6.384 6.384 11.534 11.39 11.2 10.7 9.947 9.15 7.991 6.81 6.609 7.015 6.898 6.987 7.249 7.16 7.109 7.401 7.045 6.932 6.765 7.143 7.055 7.199 6.998 6.85 6.492 6.054 5.727 5.558 4.338 4.447 5.27 5.606 5.694 5.942 6.104 6.016 5.8 5.8 6.213 6.524 6.36 6.151 6.152 6.03 6.03 6.067 6.137 6.247 6.407 6.609 6.504 6.736 7.291 7.35 6.725 6.96 7.332 6.998 7.137 7.21 7.314 7.134 7.196 7.296 7.807 7.545 7.473 7.473 7.662 7.358 7.739 7.709 7.481 7.337 7.352 7.302 7.302 7.324 7.244 7.244 7.293 7.244 7.244 7.244 7.297 7.571 7.54 7.411 7.598 7.525 7.511 7.813 7.645 7.707 7.543 7.519 7.592 7.509 7.585 6.99 5.87 4.464 3.901 3.403 3.973 4.7 5.733 7.156 7.609 7.803 7.847 7.898 -9999 -9999 -9999 -9999 -9999 -9999 -9999 -9999 -9999 -9999 -9999 -9999 -9999 -9999 -9999 -9999 -9999 -9999 -9999 -9999 -9999 -9999 -9999 -9999 -9999 -9999 -9999 -9999 -9999 -9999 -9999
-9999 -9999 -9999 -9999 -9999 -9999 -9999 -9999 -9999 -9999 -9999 -9999 -9999 -9999 -9999 -9999 -9999 -9999 -9999 -9999 -9999 -9999 -9999 -9999 -9999 -9999 -9999 -9999 -9999 -9999 -9999 -9999 -9999 -9999 -9999 -9999 -9999 -9999 -9999 -9999 -9999 -9999 -9999 -9999 -9999 -9999 -9999 -9999 -9999 -9999 -9999 -9999 -9999 -9999 -9999 -9999 -9999 -9999 -9999 -9999 -9999 -9999 -9999 -9999 -9999 -9999 -9999 -9999 -9999 -9999 -9999 -9999 -9999 -9999 -9999 -9999 -9999 -9999 -9999 -9999 -9999 -9999 -9999 -9999 -9999 -9999 -9999 -9999 -9999 -9999 -9999 -9999 -9999 -9999 -9999 -9999 -9999 -9999 -9999 -9999 -9999 -9999 7.952 7.963 7.997 8.163 8.118 7.873 8.175 8.362 8.34 8.32 8.331 8.285 8.282 7.939 7.939 8.164 8.137 7.481 7.365 6.393 4.064 4.064 4.064 4.064 4.064 4.12 4.889 5.254 5.75 6.487 7.191 7.63 7.279 7.602 6.651 6.145 6.105 6.01 6.465 6.523 6.322 6.089 6.013 5.576 5.958 6.94 7.925 7.132 7.342 7.115 7.14 7.14 7.429 7.51 7.441 7.314 7.394 7.361 7.459 7.428 7.251 7.251 7.276 7.274 7.167 7.079 5.914 6.159 6.141 5.421 5.421 6.384 6.455 6.569 7.386 7.542 7.712 7.61 8.048 7.863 7.863 10.902 11.442 10.129 6.384 6.384 11.719 11.29 10.678 6.586 6.564 6.857 6.889 6.809 6.609 6.796 6.589 6.722 6.994 6.971 6.83 6.927 6.697 6.765 7.013 7.057 7.013 7 6.895 6.681 6.358 5.67 5.523 3.855 4.185 4.642 5.451 5.476 5.645 5.926 6.094 6.078 5.873 5.938 5.884 5.884 5.884 5.884 6.12 6.03 6.03 6.042 6.128 6.128 6.128 6.128 6.332 6.661 7.195 7.05 6.725 6.725 6.905 7.011 7.114 7.217 7.14 7.134 7.134 7.32 7.296 7.779 7.613 7.591 7.612 7.55 7.531 7.548 7.392 7.485 7.302 7.354 7.31 7.437 7.244 7.244 7.244 7.251 7.244 7.244 7.373 7.277 7.337 7.332 7.431 7.559 7.511 7.529 7.688 7.478 7.376 7.377 7.359 7.448 7.439 6.679 5.255 4.164 3.452 3.403 4.115 5.072 6.401 7.535 7.697 7.902 8.097 7.91 -9999 -9999 -9999 -9999 -9999 -9999 -9999 -9999 -9999 -9999 -9999 -9999 -9999 -9999 -9999 -9999 -9999 -9999 -9999 -9999 -9999 -9999 -9999 -9999 -9999 -9999 -9999 -9999 -9999 -9999 -9999
-9999 -9999 -9999 -9999 -9999 -9999 -9999 -9999 -9999 -9999 -9999 -9999 -9999 -9999 -9999 -9999 -9999 -9999 -9999 -9999 -9999 -9999 -9999 -9999 -9999 -9999 -9999 -9999 -9999 -9999 -9999 -9999 -9999 -9999 -9999 -9999 -9999 -9999 -9999 -9999 -9999 -9999 -9999 -9999 -9999 -9999 -9999 -9999 -9999 -9999 -9999 -9999 -9999 -9999 -9999 -9999 -9999 -9999 -9999 -9999 -9999 -9999 -9999 -9999 -9999 -9999 -9999 -9999 -9999 -9999 -9999 -9999 -9999 -9999 -9999 -9999 -9999 -9999 -9999 -9999 -9999 -9999 -9999 -9999 -9999 -9999 -9999 -9999 -9999 -9999 -9999 -9999 -9999 -9999 -9999 -9999 -9999 -9999 -9999 -9999 -9999 -9999 -9999 7.988 8.131 8.303 8.221 7.873 8.221 8.371 8.492 8.503 8.295 8.431 8.222 7.939 8.176 8.102 8.072 7.98 6.669 5.69 4.064 4.081 4.064 4.661 4.296 4.431 5.134 5.233 5.611 6.433 7.303 7.545 7.177 6.357 5.828 5.497 5.905 5.988 10.583 7.299 6.06 5.75 5.433 4.357 6.02 6.693 7.046 7.115 7.115 7.115 7.254 8.429 10.45 7.67 7.462 7.276 7.391 7.361 7.392 7.251 7.35 7.445 7.146 7.183 7.156 6.625 5.889 6.17 6.069 5.421 5.421 5.894 6.592 6.713 7.26 6.929 7.132 8.541 9.414 10.169 10.871 11.313 11.477 9.449 6.384 6.384 6.384 6.573 6.578 6.623 6.621 6.564 6.503 6.463 6.506 6.574 6.498 6.696 6.714 6.769 6.712 6.833 6.593 6.899 6.765 6.59 6.889 7.122 6.767 6.336 6.006 5.423 4.878 3.855 4.379 4.81 5.547 5.59 5.808 5.895 5.855 5.872 5.953 6.006 5.908 6.099 5.983 6.101 5.991 6.128 6.03 6.875 6.897 6.164 6.336 6.354 6.419 6.777 6.684 6.824 6.725 6.972 7.065 6.993 7.219 7.114 7.468 7.428 7.781 7.49 7.296 7.631 7.48 7.743 7.677 7.531 7.392 7.392 7.396 7.374 7.364 7.411 7.381 7.244 7.244 7.267 7.244 7.56 7.248 7.246 7.239 7.411 7.419 7.332 7.467 7.289 7.355 7.528 7.576 7.489 7.306 7.252 7.035 7.094 6.948 6.197 4.59 3.659 3.403 3.815 4.408 5.837 7.056 7.677 8.001 7.969 7.913 8.193 -9999 -9999 -9999 -9999 -9999 -9999 -9999 -9999 -9999 -9999 -9999 -9999 -9999 -9999 -9999 -9999 -9999 -9999 -9999 -9999 -9999 -9999 -9999 -9999 -9999 -9999 -9999 -9999 -9999 -9999 -9999
-9999 -9999 -9999 -9999 -9999 -9999 -9999 -9999 -9999 -9999 -9999 -9999 -9999 -9999 -9999 -9999 -9999 -9999 -9999 -9999 -9999 -9999 -9999 -9999 -9999 -9999 -9999 -9999 -9999 -9999 -9999 -9999 -9999 -9999 -9999 -9999 -9999 -9999 -9999 -9999 -9999 -9999 -9999 -9999 -9999 -9999 -9999 -9999 -9999 -9999 -9999 -9999 -9999 -9999 -9999 -9999 -9999 -9999 -9999 -9999 -9999 -9999 -9999 -9999 -9999 -9999 -9999 -9999 -9999 -9999 -9999 -9999 -9999 -9999 -9999 -9999 -9999 -9999 -9999 -9999 -9999 -9999 -9999 -9999 -9999 -9999 -9999 -9999 -9999 -9999 -9999 -9999 -9999 -9999 -9999 -9999 -9999 -9999 -9999 -9999 -9999 -9999 -9999 -9999 7.879 7.982 7.925 7.873 8.08 8.182 8.3 8.211 8.211 8.362 8.155 7.939 8.283 8.02 8.041 7.584 6.489 5.146 4.064 4.064 5.487 5.663 5.26 4.938 5.312 5.864 5.896 6.603 6.845 6.89 6.64 5.627 4.829 4.145 4.83 5.426 11.16 8.469 5.623 5.473 4.689 4.064 5.661 6.625 7.268 10.744 8.335 7.61 7.64 8.308 15.284 15.5 7.606 7.261 7.31 7.329 7.331 7.279 7.396 7.664 6.842 6.712 6.848 6.327 5.52 5.437 5.421 5.421 5.421 5.421 5.758 6.186 6.398 7.188 8.062 8.829 9.415 9.914 10.298 6.738 6.738 6.738 6.384 6.855 6.774 6.384 6.38 6.502 6.496 6.274 6.274 6.492 6.505 6.64 6.498 6.727 6.554 6.636 6.577 6.703 6.496 6.772 6.587 6.39 6.685 6.722 6.474 6.014 5.287 4.814 3.855 4.195 4.444 4.989 5.427 5.507 5.81 5.851 5.851 6.06 6.013 6.008 6.041 6.083 6.162 6.149 6.167 6.17 6.03 6.875 6.995 6.356 6.399 6.478 6.611 6.846 7.103 6.997 6.878 6.987 7.178 7.182 7.38 7.364 7.289 7.669 7.428 7.676 7.296 7.425 7.547 7.48 7.493 7.424 7.396 7.464 7.47 7.39 7.271 7.271 7.272 7.406 7.415 7.258 7.257 7.654 7.276 7.39 7.239 7.342 7.355 7.267 7.288 7.256 7.289 7.374 7.397 7.229 7.225 7.173 6.887 6.879 6.095 5.121 4.041 3.403 3.403 4.086 4.787 6.325 7.458 7.759 8.049 7.996 8.267 8.185 -9999 -9999 -9999 -9999 -9999 -9999 -9999 -9999 -9999 -9999 -9999 -9999 -9999 -9999 -9999 -9999 -9999 -9999 -9999 -9999 -9999 -9999 -9999 -9999 -9999 -9999 -9999 -9999 -9999 -9999 -9999
-9999 -9999 -9999 -9999 -9999 -9999 -9999 -9999 -9999 -9999 -9999 -9999 -9999 -9999 -9999 -9999 -9999 -9999 -9999 -9999 -9999 -9999 -9999 -9999 -9999 -9999 -9999 -9999 -9999 -9999 -9999 -9999 -9999 -9999 -9999 -9999 -9999 -9999 -9999 -9999 -9999 -9999 -9999 -9999 -9999 -9999 -9999 -9999 -9999 -9999 -9999 -9999 -9999 -9999 -9999 -9999 -9999 -9999 -9999 -9999 -9999 -9999 -9999 -9999 -9999 -9999 -9999 -9999 -9999 -9999 -9999 -9999 -9999 -9999 -9999 -9999 -9999 -9999 -9999 -9999 -9999 -9999 -9999 -9999 -9999 -9999 -9999 -9999 -9999 -9999 -9999 -9999 -9999 -9999 -9999 -9999 -9999 -9999 -9999 -9999 -9999 -9999 -9999 -9999 -9999 -9999 7.92 7.911 7.873 8.119 8.152 8.254 8.222 8.238 8.065 7.939 8.236 7.82 7.661 6.928 5.967 4.064 4.064 4.064 5.77 6.041 6.085 5.508 6.165 5.976 7.412 6.235 6.208 5.556 4.827 4.064 4.064 4.064 4.064 4.064 5.073 5.885 5.313 5.105 4.385 4.064 4.916 6.24 6.589 7.652 7.976 7.964 7.959 8.103 8.407 9.774 7.479 7.261 7.38 7.228 7.183 7.181 7.518 7.525 6.727 6.29 6.138 5.732 5.421 5.421 5.421 5.421 5.439 5.612 5.881 6.273 6.49 6.932 7.523 7.583 7.195 7.226 7.416 7.572 7.583 7.48 6.437 6.861 6.648 6.387 6.612 6.38 6.357 6.274 6.373 6.274 6.434 6.611 6.482 6.59 6.527 6.591 6.392 6.603 6.39 6.789 6.53 6.39 6.446 6.384 6.24 5.673 4.651 4.651 3.726 4.427 4.811 5.085 5.398 5.478 5.43 5.874 6.083 6.045 6.164 6.314 6.325 6.359 6.518 6.385 6.338 6.334 6.03 7 6.974 6.652 6.739 6.692 6.937 6.951 6.891 6.946 6.993 7.188 7.121 7.521 7.321 7.289 7.359 7.675 7.517 7.515 7.457 7.502 7.492 7.638 7.64 7.64 7.531 7.536 7.492 7.733 7.415 7.647 7.271 7.286 7.188 7.188 7.564 7.502 7.266 7.319 7.239 7.239 7.356 7.267 7.267 7.256 7.502 7.36 7.283 7.229 6.977 6.861 6.44 6.742 5.194 4.569 4.396 3.793 3.403 4.21 5.481 7.031 7.991 8.042 8.162 7.996 8.199 8.141 -9999 -9999 -9999 -9999 -9999 -9999 -9999 -9999 -9999 -9999 -9999 -9999 -9999 -9999 -9999 -9999 -9999 -9999 -9999 -9999 -9999 -9999 -9999 -9999 -9999 -9999 -9999 -9999 -9999 -9999 -9999
-9999 -9999 -9999 -9999 -9999 -9999 -9999 -9999 -9999 -9999 -9999 -9999 -9999 -9999 -9999 -9999 -9999 -9999 -9999 -9999 -9999 -9999 -9999 -9999 -9999 -9999 -9999 -9999 -9999 -9999 -9999 -9999 -9999 -9999 -9999 -9999 -9999 -9999 -9999 -9999 -9999 -9999 -9999 -9999 -9999 -9999 -9999 -9999 -9999 -9999 -9999 -9999 -9999 -9999 -9999 -9999 -9999 -9999 -9999 -9999 -9999 -9999 -9999 -9999 -9999 -9999 -9999 -9999 -9999 -9999 -9999 -9999 -9999 -9999 -9999 -9999 -9999 -9999 -9999 -9999 -9999 -9999 -9999 -9999 -9999 -9999 -9999 -9999 -9999 -9999 -9999 -9999 -9999 -9999 -9999 -9999 -9999 -9999 -9999 -9999 -9999 -9999 -9999 -9999 -9999 -9999 -9999 7.535 7.706 7.765 7.987 8.205 7.914 7.855 7.939 7.911 8.082 7.62 7.084 5.925 5.051 5.053 4.064 4.064 5.695 6.045 5.875 6.242 5.472 7.182 5.814 5.57 4.429 4.064 4.064 4.064 4.315 4.064 4.064 4.064 4.064 4.955 4.971 4.877 4.064 4.064 4.064 5.246 6.109 7.123 7.611 7.58 7.508 12.516 7.299 7.11 7.061 6.921 7.143 7.018 7.21 7.181 7.21 7.093 6.819 6.246 5.425 5.421 5.421 5.486 5.661 5.806 5.729 5.605 5.51 6.177 6.442 6.901 7.452 7.195 7.667 7.621 7.167 7.455 7.42 7.29 6.891 6.739 6.704 6.374 6.209 6.244 6.266 6.325 6.384 6.431 6.397 6.354 6.353 6.468 6.435 6.491 6.32 6.451 6.247 6.697 6.483 6.284 6.083 6.083 6.127 6.161 4.715 4.681 3.726 4.582 4.919 5.166 5.27 5.469 5.412 6.169 6.082 6.393 7.551 7.087 6.742 6.866 6.941 6.829 6.754 6.564 6.305 6.738 6.852 7.079 7.07 7.064 6.938 7.028 7.004 7.076 7.064 7.266 7.722 7.556 7.299 7.385 7.382 7.553 7.641 7.651 7.477 7.461 7.487 7.655 7.622 8.171 7.531 7.799 7.492 8.014 7.784 7.509 7.319 7.188 7.328 7.394 7.381 7.455 7.365 7.266 7.344 7.239 7.29 7.327 7.296 7.256 7.259 7.254 7.19 7.342 7.096 6.978 6.454 6.248 4.509 3.96 2.627 2.474 3.615 4.584 6.172 7.57 8.034 8.177 8.105 7.997 8.35 8.532 -9999 -9999 -9999 -9999 -9999 -9999 -9999 -9999 -9999 -9999 -9999 -9999 -9999 -9999 -9999 -9999 -9999 -9999 -9999 -9999 -9999 -9999 -9999 -9999 -9999 -9999 -9999 -9999 -9999 -9999 -9999
-9999 -9999 -9999 -9999 -9999 -9999 -9999 -9999 -9999 -9999 -9999 -9999 -9999 -9999 -9999 -9999 -9999 -9999 -9999 -9999 -9999 -9999 -9999 -9999 -9999 -9999 -9999 -9999 -9999 -9999 -9999 -9999 -9999 -9999 -9999 -9999 -9999 -9999 -9999 -9999 -9999 -9999 -9999 -9999 -9999 -9999 -9999 -9999 -9999 -9999 -9999 -9999 -9999 -9999 -9999 -9999 -9999 -9999 -9999 -9999 -9999 -9999 -9999 -9999 -9999 -9999 -9999 -9999 -9999 -9999 -9999 -9999 -9999 -9999 -9999 -9999 -9999 -9999 -9999 -9999 -9999 -9999 -9999 -9999 -9999 -9999 -9999 -9999 -9999 -9999 -9999 -9999 -9999 -9999 -9999 -9999 -9999 -9999 -9999 -9999 -9999 -9999 -9999 -9999 -9999 -9999 -9999 -9999 7.666 7.762 7.888 7.767 7.626 7.616 7.575 7.219 7.228 6.462 6.575 4.972 4.972 4.972 4.759 4.064 4.064 4.705 4.595 7.237 5.212 4.895 5.444 4.064 4.064 4.064 4.064 4.064 4.064 4.064 4.064 4.064 4.203 4.064 4.064 4.064 4.064 4.064 4.064 4.064 4.064 5.769 6.968 6.866 6.725 6.632 6.828 6.9 6.98 6.62 7.064 6.903 7.198 7.195 6.894 6.978 5.339 5.375 5.531 5.678 5.549 5.421 5.259 5.174 4.141 5.156 6.524 6.636 6.936 6.952 6.853 7.042 7.689 7.662 7.421 7.167 7.097 6.983 6.621 6.78 6.804 6.416 6.113 6.223 6.143 6.027 6.027 6.027 6.027 6.027 6.027 6.319 6.23 6.348 6.278 6.364 6.247 6.593 6.335 6.083 6.493 6.486 6.365 6.456 4.711 4.488 3.726 4.586 4.918 5.161 5.232 5.489 5.366 6.249 6.082 6.628 6.284 6.284 6.988 6.637 6.724 7.059 6.907 6.767 6.529 6.83 7.093 7.206 7.294 7.357 7.044 7.185 7.004 7.253 7.245 7.717 7.714 7.487 7.614 7.299 7.5 7.651 7.808 7.768 7.534 7.461 7.567 7.512 7.705 7.531 7.692 7.714 7.679 7.894 7.788 7.325 7.188 7.269 8.079 7.446 7.186 7.423 7.573 7.262 7.366 7.115 7.394 7.364 7.098 6.987 7.125 7.19 7.499 7.43 7.331 7.127 6.326 5.308 4.183 2.877 2.474 2.907 3.875 5.343 6.824 7.873 8.07 8.283 8.07 7.997 8.134 8.451 -9999 -9999 -9999 -9999 -9999 -9999 -9999 -9999 -9999 -9999 -9999 -9999 -9999 -9999 -9999 -9999 -9999 -9999 -9999 -9999 -9999 -9999 -9999 -9999 -9999 -9999 -9999 -9999 -9999 -9999 -9999
-9999 -9999 -9999 -9999 -9999 -9999 -9999 -9999 -9999 -9999 -9999 -9999 -9999 -9999 -9999 -9999 -9999 -9999 -9999 -9999 -9999 -9999 -9999 -9999 -9999 -9999 -9999 -9999 -9999 -9999 -9999 -9999 -9999 -9999 -9999 -9999 -9999 -9999 -9999 -9999 -9999 -9999 -9999 -9999 -9999 -9999 -9999 -9999 -9999 -9999 -9999 -9999 -9999 -9999 -9999 -9999 -9999 -9999 -9999 -9999 -9999 -9999 -9999 -9999 -9999 -9999 -9999 -9999 -9999 -9999 -9999 -9999 -9999 -9999 -9999 -9999 -9999 -9999 -9999 -9999 -9999 -9999 -9999 -9999 -9999 -9999 -9999 -9999 -9999 -9999 -9999 -9999 -9999 -9999 -9999 -9999 -9999 -9999 -9999 -9999 -9999 -9999 -9999 -9999 -9999 -9999 -9999 -9999 -9999 7.119 7.133 7.502 7.158 6.985 7.119 7.309 6.994 6.804 5.418 4.972 5.628 5.56 4.064 4.064 4.064 4.064 4.072 7.058 4.727 4.239 4.064 4.064 4.064 4.064 4.064 8.033 7.642 4.064 4.064 4.064 4.064 4.073 4.477 4.064 4.064 4.064 4.064 4.064 4.064 4.064 5.854 6.495 6.462 6.427 6.59 6.518 6.528 6.273 6.566 5.226 5.226 5.226 5.394 5.594 5.466 5.339 5.244 5.066 3.662 3.662 3.662 3.662 4.099 6.044 6.315 6.457 6.572 6.612 6.042 6.009 7.031 7.039 7.13 6.997 6.851 6.731 6.553 6.536 6.31 6.021 5.891 6.039 6.027 6.068 6.243 6.308 6.217 6.28 7.187 7.573 6.37 6.23 6.084 6.209 6.101 6.306 6.099 6.083 6.28 5.798 6.255 6.206 4.485 4.113 3.726 4.384 4.85 5.11 5.268 5.335 5.456 6.323 6.082 6.726 6.37 6.284 6.284 6.284 9.563 6.996 6.778 6.766 6.538 6.976 7.166 7.433 7.237 7.259 7.189 7.178 7.004 7.306 7.437 7.378 7.691 7.404 7.317 7.379 7.299 7.602 7.674 7.523 7.589 7.653 7.648 7.512 7.659 7.658 7.988 7.609 7.593 7.669 7.589 7.411 7.295 7.188 7.349 7.418 7.086 7.362 7.173 7.182 7.125 7.011 6.994 6.955 6.955 7.339 7.046 7.174 7.33 7.281 7.318 6.853 5.787 5.209 3.959 2.409 1.744 3.176 4.131 6.013 7.402 7.853 8.131 8.265 8.025 7.997 7.997 8.331 -9999 -9999 -9999 -9999 -9999 -9999 -9999 -9999 -9999 -9999 -9999 -9999 -9999 -9999 -9999 -9999 -9999 -9999 -9999 -9999 -9999 -9999 -9999 -9999 -9999 -9999 -9999 -9999 -9999 -9999 -9999
-9999 -9999 -9999 -9999 -9999 -9999 -9999 -9999 -9999 -9999 -9999 -9999 -9999 -9999 -9999 -9999 -9999 -9999 -9999 -9999 -9999 -9999 -9999 -9999 -9999 -9999 -9999 -9999 -9999 -9999 -9999 -9999 -9999 -9999 -9999 -9999 -9999 -9999 -9999 -9999 -9999 -9999 -9999 -9999 -9999 -9999 -9999 -9999 -9999 -9999 -9999 -9999 -9999 -9999 -9999 -9999 -9999 -9999 -9999 -9999 -9999 -9999 -9999 -9999 -9999 -9999 -9999 -9999 -9999 -9999 -9999 -9999 -9999 -9999 -9999 -9999 -9999 -9999 -9999 -9999 -9999 -9999 -9999 -9999 -9999 -9999 -9999 -9999 -9999 -9999 -9999 -9999 -9999 -9999 -9999 -9999 -9999 -9999 -9999 -9999 -9999 -9999 -9999 -9999 -9999 -9999 -9999 -9999 -9999 -9999 7.119 7.119 6.777 6.777 6.777 6.055 6.055 6.055 4.972 6.091 6.533 6.069 4.064 5.578 4.846 4.064 4.064 4.064 4.213 4.064 4.064 4.064 4.064 4.064 4.064 4.315 7.852 4.796 4.064 4.064 4.064 4.064 4.064 4.064 4.064 4.064 4.064 4.064 4.064 4.064 4.064 5.92 6.048 5.816 6.147 5.639 5.268 5.268 5.268 5.428 5.364 5.253 5.151 5.081 5.081 4.285 4.038 3.662 3.868 3.756 3.662 3.662 3.662 5.477 5.745 6.043 6.398 6.113 5.907 5.907 6.507 6.82 7.101 6.931 6.938 6.785 6.613 6.311 6.049 5.99 5.765 5.914 5.922 5.911 6.114 6.194 6.197 6.069 6.771 6.04 6.096 6.129 6.007 6.132 5.948 6.183 6.083 6.102 6.13 5.869 5.798 5.344 4.137 3.726 3.726 4.346 4.942 5.062 5.276 5.352 5.363 6.391 6.112 6.826 6.284 6.284 6.322 6.284 10.17 6.823 6.993 6.81 6.538 7.362 7.227 7.5 7.422 7.246 7.484 7.444 7.286 7.199 7.543 7.353 7.646 7.573 7.602 7.434 7.299 7.583 7.754 7.718 7.52 7.55 7.775 7.512 7.8 7.828 7.753 7.373 7.445 7.47 7.447 7.345 7.294 7.243 7.188 7.048 6.97 7.325 7.021 7.038 6.839 7.001 7.001 6.955 7.091 7.551 7.145 6.935 6.935 6.935 7.099 6.635 5.56 4.969 3.595 2.273 1.744 3.051 4.138 5.97 7.204 7.816 7.878 8.032 8.009 7.997 8.374 8.592 -9999 -9999 -9999 -9999 -9999 -9999 -9999 -9999 -9999 -9999 -9999 -9999 -9999 -9999 -9999 -9999 -9999 -9999 -9999 -9999 -9999 -9999 -9999 -9999 -9999 -9999 -9999 -9999 -9999 -9999 -9999
-9999 -9999 -9999 -9999 -9999 -9999 -9999 -9999 -9999 -9999 -9999 -9999 -9999 -9999 -9999 -9999 -9999 -9999 -9999 -9999 -9999 -9999 -9999 -9999 -9999 -9999 -9999 -9999 -9999 -9999 -9999 -9999 -9999 -9999 -9999 -9999 -9999 -9999 -9999 -9999 -9999 -9999 -9999 -9999 -9999 -9999 -9999 -9999 -9999 -9999 -9999 -9999 -9999 -9999 -9999 -9999 -9999 -9999 -9999 -9999 -9999 -9999 -9999 -9999 -9999 -9999 -9999 -9999 -9999 -9999 -9999 -9999 -9999 -9999 -9999 -9999 -9999 -9999 -9999 -9999 -9999 -9999 -9999 -9999 -9999 -9999 -9999 -9999 -9999 -9999 -9999 -9999 -9999 -9999 -9999 -9999 -9999 -9999 -9999 -9999 -9999 -9999 -9999 -9999 -9999 -9999 -9999 -9999 -9999 -9999 -9999 7.309 7.03 7.219 7.073 6.869 6.489 6.591 6.558 6.926 6.82 6.679 7.212 5.843 5.466 4.902 5.823 4.064 4.064 4.317 4.945 8.565 4.86 4.373 4.346 4.344 4.367 5.928 4.064 4.064 4.064 4.064 4.064 4.064 4.064 4.064 4.064 5.235 5.636 4.346 4.064 4.064 5.918 5.814 5.657 5.485 5.331 5.268 5.268 5.671 5.581 5.905 6.087 6.667 6.532 6.739 3.711 3.388 3.672 3.79 4.579 3.913 4.214 5.112 5.46 5.69 5.81 5.713 6.054 6.156 6.344 7.119 7.265 7.418 6.977 6.811 6.513 6.07 5.99 6.161 5.682 5.716 5.716 5.805 5.909 5.973 5.876 5.877 6.089 6.123 5.838 5.974 5.795 6.009 5.891 6.058 5.971 6.067 5.949 5.925 5.605 4.967 3.934 3.726 3.726 4.123 4.821 4.954 5.262 5.187 5.281 6.213 6.133 6.782 6.284 6.284 6.284 6.284 6.979 6.752 7.015 6.73 6.538 7.348 7.378 7.593 7.511 7.478 7.42 7.51 7.466 7.422 7.223 7.295 7.546 7.566 7.599 7.397 7.532 7.481 7.656 7.648 7.688 7.483 7.696 7.637 7.544 7.851 7.56 7.22 7.747 7.754 7.659 7.194 7.187 7.08 7.307 7.054 6.97 7.286 6.888 6.764 6.99 6.848 7.096 6.949 7.326 7.268 7.109 7.108 7.369 7.589 6.442 6.274 4.995 3.904 3.221 1.83 1.744 2.857 4.237 5.544 6.962 7.588 8.004 8.197 8.285 8.493 8.7 8.588 -9999 -9999 -9999 -9999 -9999 -9999 -9999 -9999 -9999 -9999 -9999 -9999 -9999 -9999 -9999 -9999 -9999 -9999 -9999 -9999 -9999 -9999 -9999 -9999 -9999 -9999 -9999 -9999 -9999 -9999 -9999
-9999 -9999 -9999 -9999 -9999 -9999 -9999 -9999 -9999 -9999 -9999 -9999 -9999 -9999 -9999 -9999 -9999 -9999 -9999 -9999 -9999 -9999 -9999 -9999 -9999 -9999 -9999 -9999 -9999 -9999 -9999 -9999 -9999 -9999 -9999 -9999 -9999 -9999 -9999 -9999 -9999 -9999 -9999 -9999 -9999 -9999 -9999 -9999 -9999 -9999 -9999 -9999 -9999 -9999 -9999 -9999 -9999 -9999 -9999 -9999 -9999 -9999 -9999 -9999 -9999 -9999 -9999 -9999 -9999 -9999 -9999 -9999 -9999 -9999 -9999 -9999 -9999 -9999 -9999 -9999 -9999 -9999 -9999 -9999 -9999 -9999 -9999 -9999 -9999 -9999 -9999 -9999 -9999 -9999 -9999 -9999 -9999 -9999 -9999 -9999 -9999 -9999 -9999 -9999 -9999 -9999 -9999 -9999 -9999 -9999 -9999 -9999 7.877 8.154 7.516 7.364 7.177 7.022 7.198 7.299 6.921 6.839 6.853 6.729 6.006 5.537 6.24 6.395 5.108 5.618 5.913 6.111 6.939 5.154 4.827 4.606 4.462 4.556 4.73 4.064 4.064 4.064 4.064 4.064 4.108 4.561 4.157 4.896 5.81 6.299 4.064 4.064 4.827 6.06 5.643 5.147 5.441 5.382 5.307 5.915 5.712 2.937 5.367 6.138 6.58 6.251 4.305 3.388 4.771 4.326 3.864 3.819 2.841 5.304 5.21 5.317 4.91 5.485 5.909 5.958 6.302 7.09 7.552 7.668 7.343 6.727 6.491 6.328 6.683 6.059 5.682 5.716 5.758 5.724 5.949 8.31 5.828 5.815 5.719 5.719 5.719 5.809 5.719 5.866 5.752 6.037 6.15 5.891 5.891 5.608 5.321 4.487 3.726 3.726 3.726 3.726 4.44 4.686 5.11 5.181 5.313 5.926 5.972 6.491 6.284 6.284 6.284 6.284 6.752 6.887 7.031 7.013 6.599 7.242 7.313 7.643 7.496 7.365 7.464 7.647 7.522 7.252 7.382 7.314 7.419 7.416 7.447 7.415 7.416 7.423 7.423 7.429 7.478 7.483 7.561 7.48 7.529 7.489 7.451 7.209 7.453 7.582 7.486 7.27 7.222 7.132 7.08 7.098 6.97 7.27 6.747 6.615 6.761 6.727 6.964 6.949 7.441 7.336 7.169 7.108 7.384 7.303 7.025 6.53 5.435 4.495 2.984 1.836 1.744 3.277 4.194 5.524 6.692 7.449 7.85 7.987 8.033 8.43 8.389 8.374 -9999 -9999 -9999 -9999 -9999 -9999 -9999 -9999 -9999 -9999 -9999 -9999 -9999 -9999 -9999 -9999 -9999 -9999 -9999 -9999 -9999 -9999 -9999 -9999 -9999 -9999 -9999 -9999 -9999 -9999 -9999
-9999 -9999 -9999 -9999 -9999 -9999 -9999 -9999 -9999 -9999 -9999 -9999 -9999 -9999 -9999 -9999 -9999 -9999 -9999 -9999 -9999 -9999 -9999 -9999 -9999 -9999 -9999 -9999 -9999 -9999 -9999 -9999 -9999 -9999 -9999 -9999 -9999 -9999 -9999 -9999 -9999 -9999 -9999 -9999 -9999 -9999 -9999 -9999 -9999 -9999 -9999 -9999 -9999 -9999 -9999 -9999 -9999 -9999 -9999 -9999 -9999 -9999 -9999 -9999 -9999 -9999 -9999 -9999 -9999 -9999 -9999 -9999 -9999 -9999 -9999 -9999 -9999 -9999 -9999 -9999 -9999 -9999 -9999 -9999 -9999 -9999 -9999 -9999 -9999 -9999 -9999 -9999 -9999 -9999 -9999 -9999 -9999 -9999 -9999 -9999 -9999 -9999 -9999 -9999 -9999 -9999 -9999 -9999 -9999 -9999 -9999 -9999 -9999 8.486 7.634 7.526 7.414 7.247 7.476 7.026 7.197 7.199 7.074 6.77 6.381 5.733 5.509 5.433 5.488 5.525 5.433 5.433 6.03 5.989 5.36 4.869 4.467 4.145 4.439 4.324 4.125 4.064 4.235 5.673 6.873 7.247 6.833 6.605 6.573 6.476 6.403 4.064 4.064 4.064 5.689 5.623 4.629 4.771 4.944 5.104 5.098 2.412 4.326 5.643 6.147 6.207 4.123 4.045 3.297 4.135 3.654 2.841 3.283 5.127 5.142 5.14 4.91 5.41 5.799 5.539 6.197 6.857 7.643 7.425 7.452 6.954 6.387 6.17 6.357 6.182 5.779 5.682 5.682 5.658 5.723 5.552 5.552 5.841 5.719 5.719 5.719 5.719 5.719 5.719 5.719 5.788 6.014 6.015 5.931 5.672 4.55 3.726 3.726 3.726 3.745 3.754 4.119 4.655 5.004 5.017 5.226 5.642 5.858 6.284 6.284 6.284 6.284 6.284 6.672 6.674 7.094 6.995 6.708 6.908 7.034 7.14 7.239 7.56 7.384 7.438 7.722 7.37 7.273 7.263 7.386 7.395 7.434 7.347 7.347 7.582 7.423 7.423 7.486 7.344 7.414 7.587 7.612 7.4 7.327 7.191 7.289 7.177 7.177 7.241 7.271 7.153 7.092 7.057 6.959 7.24 6.663 6.512 6.685 6.766 6.919 7.091 7.611 7.5 7.23 7.116 7.281 7.363 7.003 6.986 5.966 4.66 3.249 1.744 1.831 2.546 3.813 5.139 6.145 6.955 7.57 8.05 8.082 8.292 8.525 -9999 -9999 -9999 -9999 -9999 -9999 -9999 -9999 -9999 -9999 -9999 -9999 -9999 -9999 -9999 -9999 -9999 -9999 -9999 -9999 -9999 -9999 -9999 -9999 -9999 -9999 -9999 -9999 -9999 -9999 -9999 -9999
-9999 -9999 -9999 -9999 -9999 -9999 -9999 -9999 -9999 -9999 -9999 -9999 -9999 -9999 -9999 -9999 -9999 -9999 -9999 -9999 -9999 -9999 -9999 -9999 -9999 -9999 -9999 -9999 -9999 -9999 -9999 -9999 -9999 -9999 -9999 -9999 -9999 -9999 -9999 -9999 -9999 -9999 -9999 -9999 -9999 -9999 -9999 -9999 -9999 -9999 -9999 -9999 -9999 -9999 -9999 -9999 -9999 -9999 -9999 -9999 -9999 -9999 -9999 -9999 -9999 -9999 -9999 -9999 -9999 -9999 -9999 -9999 -9999 -9999 -9999 -9999 -9999 -9999 -9999 -9999 -9999 -9999 -9999 -9999 -9999 -9999 -9999 -9999 -9999 -9999 -9999 -9999 -9999 -9999 -9999 -9999 -9999 -9999 -9999 -9999 -9999 -9999 -9999 -9999 -9999 -9999 -9999 -9999 -9999 -9999 -9999 -9999 -9999 -9999 7.795 7.684 7.621 7.214 7.191 7.026 7.026 7.026 9.413 7.971 6.855 5.83 5.433 5.495 5.433 5.433 5.602 5.525 5.517 5.581 5.295 4.862 4.386 4.335 4.134 4.125 4.174 4.33 9.781 9.144 8.617 8.012 7.363 6.667 5.908 5.498 5.423 5.644 5.748 4.064 4.064 4.064 5.211 4.927 4.31 4.114 2.412 2.412 2.412 2.412 3.454 4.723 4.102 4.006 3.297 4.18 3.157 2.412 3.97 4.958 4.211 3.84 4.719 5.131 5.455 5.38 5.746 5.762 6.418 6.231 6.381 6.304 6.129 5.887 5.847 5.823 5.758 5.687 5.718 5.965 5.658 5.552 5.596 5.761 5.777 5.841 5.719 5.768 5.723 5.804 5.794 5.75 5.497 5.101 4.651 4.267 4.004 3.815 3.726 3.847 4.027 4.36 4.656 4.973 5.24 5.488 5.709 5.999 6.181 6.439 6.638 6.757 6.911 7.064 7.142 7.153 7.187 7.195 7.17 7.253 7.448 7.506 7.14 7.381 7.45 7.349 7.708 7.85 7.27 7.249 7.346 7.347 7.3 7.65 7.483 7.538 7.74 7.645 7.468 7.242 7.445 7.453 7.198 7.234 7.426 7.197 7.191 7.177 7.266 7.065 7.196 7.11 6.998 7.142 6.959 7.215 6.695 6.509 6.594 6.547 6.795 6.809 7.089 7.18 7.196 7.116 7.192 7.382 7.351 7.425 6.795 5.135 3.608 1.725 1.643 2.176 3.7 5.26 6.347 7.022 7.666 7.999 8.127 8.359 8.364 -9999 -9999 -9999 -9999 -9999 -9999 -9999 -9999 -9999 -9999 -9999 -9999 -9999 -9999 -9999 -9999 -9999 -9999 -9999 -9999 -9999 -9999 -9999 -9999 -9999 -9999 -9999 -9999 -9999 -9999 -9999 -9999
-9999 -9999 -9999 -9999 -9999 -9999 -9999 -9999 -9999 -9999 -9999 -9999 -9999 -9999 -9999 -9999 -9999 -9999 -9999 -9999 -9999 -9999 -9999 -9999 -9999 -9999 -9999 -9999 -9999 -9999 -9999 -9999 -9999 -9999 -9999 -9999 -9999 -9999 -9999 -9999 -9999 -9999 -9999 -9999 -9999 -9999 -9999 -9999 -9999 -9999 -9999 -9999 -9999 -9999 -9999 -9999 -9999 -9999 -9999 -9999 -9999 -9999 -9999 -9999 -9999 -9999 -9999 -9999 -9999 -9999 -9999 -9999 -9999 -9999 -9999 -9999 -9999 -9999 -9999 -9999 -9999 -9999 -9999 -9999 -9999 -9999 -9999 -9999 -9999 -9999 -9999 -9999 -9999 -9999 -9999 -9999 -9999 -9999 -9999 -9999 -9999 -9999 -9999 -9999 -9999 -9999 -9999 -9999 -9999 -9999 -9999 -9999 -9999 -9999 -9999 7.461 7.572 7.208 7.026 7.026 7.026 7.05 11.888 11.407 10.743 10.322 10.072 9.98 10.091 10.399 10.752 11.071 10.317 7.046 5.49 5.275 5.105 4.981 4.711 4.365 4.189 4.233 5.899 10.023 7.628 5.2 4.584 5.11 5.172 5.27 5.561 5.862 5.715 5.936 5.601 4.905 2.412 2.412 2.412 2.412 2.412 3.574 4.179 5.394 2.412 2.412 2.412 2.412 2.412 2.412 2.412 2.412 5.257 5.114 3.182 2.473 2.863 2.926 2.873 3.725 4.893 5.666 6.024 6.013 5.807 5.937 5.757 5.666 5.728 5.66 5.546 5.552 5.454 5.374 5.329 5.21 4.267 5.412 5.436 5.461 5.535 5.469 5.66 5.534 5.321 4.978 4.966 4.688 4.147 3.151 2.232 3.093 3.431 3.809 4.657 5.072 5.167 5.231 5.701 5.24 5.299 5.51 5.822 5.987 6.651 7.042 7.473 7.518 7.531 7.413 7.319 7.271 7.231 7.418 7.4 7.359 7.374 7.373 7.349 7.349 7.578 7.349 7.488 7.19 7.238 7.344 7.232 7.396 7.56 7.472 7.646 7.428 7.24 7.174 7.35 7.198 7.198 7.334 7.197 7.453 7.244 7.186 7.23 7.053 7.007 7.015 6.974 6.977 6.959 7.115 6.619 6.387 6.238 6.435 6.55 6.837 7.192 7.376 7.47 7.478 7.803 7.447 7.571 7.508 6.957 5.514 3.835 2.262 1.643 2.542 3.932 5.629 6.683 7.5 7.878 8.11 8.021 8.434 8.391 -9999 -9999 -9999 -9999 -9999 -9999 -9999 -9999 -9999 -9999 -9999 -9999 -9999 -9999 -9999 -9999 -9999 -9999 -9999 -9999 -9999 -9999 -9999 -9999 -9999 -9999 -9999 -9999 -9999 -9999 -9999 -9999
-9999 -9999 -9999 -9999 -9999 -9999 -9999 -9999 -9999 -9999 -9999 -9999 -9999 -9999 -9999 -9999 -9999 -9999 -9999 -9999 -9999 -9999 -9999 -9999 -9999 -9999 -9999 -9999 -9999 -9999 -9999 -9999 -9999 -9999 -9999 -9999 -9999 -9999 -9999 -9999 -9999 -9999 -9999 -9999 -9999 -9999 -9999 -9999 -9999 -9999 -9999 -9999 -9999 -9999 -9999 -9999 -9999 -9999 -9999 -9999 -9999 -9999 -9999 -9999 -9999 -9999 -9999 -9999 -9999 -9999 -9999 -9999 -9999 -9999 -9999 -9999 -9999 -9999 -9999 -9999 -9999 -9999 -9999 -9999 -9999 -9999 -9999 -9999 -9999 -9999 -9999 -9999 -9999 -9999 -9999 -9999 -9999 -9999 -9999 -9999 -9999 -9999 -9999 -9999 -9999 -9999 -9999 -9999 -9999 -9999 -9999 -9999 -9999 -9999 -9999 -9999 7.39 7.364 7.17 7.117 7.12 7.345 12.018 11.57 10.925 10.486 10.234 10.14 10.308 10.732 11.253 11.804 12.178 9.979 6.062 5.747 5.733 5.439 5.109 4.591 4.517 4.328 4.233 4.233 4.233 4.584 5.241 5.33 5.614 5.515 8.682 5.96 5.847 5.838 6.009 5.762 5.834 5.983 5.899 5.765 5.308 4.877 3.574 5.733 5.856 5.81 5.649 5.4 5.132 5.009 2.412 2.426 2.445 2.329 2.124 2.43 2.124 2.124 2.124 2.124 2.45 4.091 4.442 5.088 5.085 5.586 5.392 5.569 5.629 5.316 5.318 5.381 5.487 5.246 5.216 4.991 4.267 5.355 5.473 5.436 5.448 5.386 5.388 5.234 4.693 4.246 3.797 3.461 2.673 2.477 2.232 3.011 3.916 4.676 4.846 5.185 5.05 5.507 5.392 5.258 5.276 5.315 5.679 5.872 6.391 6.821 7.229 7.212 7.212 7.561 7.333 7.454 7.505 7.531 7.558 7.513 7.461 7.467 7.364 7.349 7.349 7.349 7.522 7.19 7.19 7.291 7.2 7.374 7.182 7.206 7.383 7.248 7.182 7.214 7.174 7.352 7.22 7.377 7.328 7.197 7.269 7.055 7.151 6.905 6.905 6.974 7.035 7.06 6.959 7.053 6.506 6.246 6.238 6.46 6.643 7.026 7.412 7.523 7.556 7.505 7.513 7.501 7.429 7.166 6.486 5.244 3.808 2.161 1.643 2.425 3.972 5.599 6.975 7.469 7.901 7.861 8.085 8.384 8.358 -9999 -9999 -9999 -9999 -9999 -9999 -9999 -9999 -9999 -9999 -9999 -9999 -9999 -9999 -9999 -9999 -9999 -9999 -9999 -9999 -9999 -9999 -9999 -9999 -9999 -9999 -9999 -9999 -9999 -9999 -9999 -9999
-9999 -9999 -9999 -9999 -9999 -9999 -9999 -9999 -9999 -9999 -9999 -9999 -9999 -9999 -9999 -9999 -9999 -9999 -9999 -9999 -9999 -9999 -9999 -9999 -9999 -9999 -9999 -9999 -9999 -9999 -9999 -9999 -9999 -9999 -9999 -9999 -9999 -9999 -9999 -9999 -9999 -9999 -9999 -9999 -9999 -9999 -9999 -9999 -9999 -9999 -9999 -9999 -9999 -9999 -9999 -9999 -9999 -9999 -9999 -9999 -9999 -9999 -9999 -9999 -9999 -9999 -9999 -9999 -9999 -9999 -9999 -9999 -9999 -9999 -9999 -9999 -9999 -9999 -9999 -9999 -9999 -9999 -9999 -9999 -9999 -9999 -9999 -9999 -9999 -9999 -9999 -9999 -9999 -9999 -9999 -9999 -9999 -9999 -9999 -9999 -9999 -9999 -9999 -9999 -9999 -9999 -9999 -9999 -9999 -9999 -9999 -9999 -9999 -9999 -9999 -9999 -9999 10.087 8.99 7.616 7.209 7.282 9.237 8.95 8.655 8.319 8.067 8.039 8.123 8.309 8.62 8.654 8.605 7.893 6.354 6.263 5.963 5.724 5.498 5.372 4.843 4.402 4.233 4.233 4.233 4.563 5.219 4.932 4.932 5.233 4.777 4.655 5.596 5.342 5.922 5.582 5.127 5.933 5.351 5.612 4.557 4.005 3.584 6.02 6.227 5.873 5.535 5.447 5.009 5.192 2.124 2.124 2.124 2.124 2.124 2.124 2.124 2.124 2.124 2.124 2.124 3.916 3.925 4.151 5.168 5.422 5.64 5.392 5.618 5.319 5.316 5.246 5.246 5.322 4.897 4.267 4.621 5.289 5.424 5.415 5.26 5.362 4.728 4.625 3.62 2.19 1.7 2.102 2.232 2.232 3.022 4.554 9.29 8.497 5 4.932 5.904 5.941 5.748 5.258 5.258 5.317 5.698 5.912 6.173 6.63 7.077 7.412 7.379 7.562 7.341 7.548 7.728 7.524 7.562 7.486 7.496 7.629 7.609 7.491 7.376 7.349 7.74 7.19 7.19 7.19 7.115 7.2 7.21 7.119 7.27 7.163 7.119 7.141 7.242 7.28 7.22 7.22 7.403 7.44 7.426 7.254 6.948 7.061 7.033 6.905 7.135 7.043 6.903 7 6.394 6.107 5.956 6.211 6.447 6.93 7.072 7.315 7.334 7.402 7.614 7.652 7.307 6.845 5.967 4.885 3.374 1.778 1.643 2.432 4.074 5.663 7.102 7.713 7.771 7.833 7.969 8.156 8.111 -9999 -9999 -9999 -9999 -9999 -9999 -9999 -9999 -9999 -9999 -9999 -9999 -9999 -9999 -9999 -9999 -9999 -9999 -9999 -9999 -9999 -9999 -9999 -9999 -9999 -9999 -9999 -9999 -9999 -9999 -9999 -9999
-9999 -9999 -9999 -9999 -9999 -9999 -9999 -9999 -9999 -9999 -9999 -9999 -9999 -9999 -9999 -9999 -9999 -9999 -9999 -9999 -9999 -9999 -9999 -9999 -9999 -9999 -9999 -9999 -9999 -9999 -9999 -9999 -9999 -9999 -9999 -9999 -9999 -9999 -9999 -9999 -9999 -9999 -9999 -9999 -9999 -9999 -9999 -9999 -9999 -9999 -9999 -9999 -9999 -9999 -9999 -9999 -9999 -9999 -9999 -9999 -9999 -9999 -9999 -9999 -9999 -9999 -9999 -9999 -9999 -9999 -9999 -9999 -9999 -9999 -9999 -9999 -9999 -9999 -9999 -9999 -9999 -9999 -9999 -9999 -9999 -9999 -9999 -9999 -9999 -9999 -9999 -9999 -9999 -9999 -9999 -9999 -9999 -9999 -9999 -9999 -9999 -9999 -9999 -9999 -9999 -9999 -9999 -9999 -9999 -9999 -9999 -9999 -9999 -9999 -9999 -9999 -9999 -9999 7.874 7.568 7.254 7.133 7.133 7.133 7.244 7.34 7.335 7.197 7.157 7.157 7.157 7.157 6.929 6.598 6.383 6.056 6.113 5.739 5.331 4.91 4.523 4.233 4.233 4.233 4.28 5 5.229 5.046 4.964 4.655 4.655 4.655 4.655 4.655 4.655 4.655 4.655 4.835 5.458 4.39 4.39 4.139 4.185 5.431 5.381 5.381 5.381 6.073 6.484 6.875 4.519 3.144 2.955 2.124 3.88 4.238 4.477 2.767 2.124 2.44 2.25 3.87 3.894 3.707 5.126 5.333 5.809 5.481 5.326 5.243 5.524 5.488 5.26 5.568 4.728 4.267 4.97 5.284 5.338 5.41 5.175 5.373 4.523 3.233 2.098 1.676 1.589 1.589 2.248 2.956 4.315 4.719 5.267 6.19 4.932 4.932 4.932 5.482 5.888 5.329 5.325 5.577 5.361 5.611 6.416 6.893 7.201 7.069 7.069 7.507 7.371 7.802 7.837 7.555 7.58 7.681 7.623 7.671 7.7 7.687 7.645 7.573 7.499 7.406 7.23 7.373 7.364 6.942 6.957 7.089 7.213 6.97 7.318 7.249 7.313 7.298 7.344 7.424 7.224 7.405 7.552 7.177 7.126 7.08 7.257 6.915 6.905 6.898 6.745 6.961 6.432 6.18 5.885 6.045 6.455 6.962 7.278 7.313 7.461 7.685 7.679 7.744 7.279 6.734 5.563 4.329 2.829 2.214 1.643 2.452 4.034 5.753 6.972 7.806 7.804 7.777 7.785 8.078 8.168 -9999 -9999 -9999 -9999 -9999 -9999 -9999 -9999 -9999 -9999 -9999 -9999 -9999 -9999 -9999 -9999 -9999 -9999 -9999 -9999 -9999 -9999 -9999 -9999 -9999 -9999 -9999 -9999 -9999 -9999 -9999 -9999
-9999 -9999 -9999 -9999 -9999 -9999 -9999 -9999 -9999 -9999 -9999 -9999 -9999 -9999 -9999 -9999 -9999 -9999 -9999 -9999 -9999 -9999 -9999 -9999 -9999 -9999 -9999 -9999 -9999 -9999 -9999 -9999 -9999 -9999 -9999 -9999 -9999 -9999 -9999 -9999 -9999 -9999 -9999 -9999 -9999 -9999 -9999 -9999 -9999 -9999 -9999 -9999 -9999 -9999 -9999 -9999 -9999 -9999 -9999 -9999 -9999 -9999 -9999 -9999 -9999 -9999 -9999 -9999 -9999 -9999 -9999 -9999 -9999 -9999 -9999 -9999 -9999 -9999 -9999 -9999 -9999 -9999 -9999 -9999 -9999 -9999 -9999 -9999 -9999 -9999 -9999 -9999 -9999 -9999 -9999 -9999 -9999 -9999 -9999 -9999 -9999 -9999 -9999 -9999 -9999 -9999 -9999 -9999 -9999 -9999 -9999 -9999 -9999 -9999 -9999 -9999 -9999 -9999 -9999 7.133 7.133 7.188 7.271 7.473 7.524 7.401 7.549 7.471 7.442 7.46 7.383 7.229 7.28 7.001 6.971 6.465 5.739 5.839 6.105 7.532 4.555 4.233 4.233 4.396 4.655 4.797 5.08 5.262 4.872 4.655 4.655 4.655 4.655 4.727 4.992 4.655 4.655 4.655 4.706 4.633 4.712 5.388 5.487 5.14 5.857 6.389 6.83 6.953 6.878 7.164 6.669 6.398 6.399 7.194 7.383 7.312 6.492 5.035 2.124 2.124 2.124 3.464 3.272 1.847 2.776 5.085 5.484 5.613 5.151 5.151 5.156 5.16 5.629 4.974 4.36 4.267 5.431 5.785 5.469 5.391 5.13 4.944 4.187 1.756 1.744 1.589 2.959 3.103 3.748 7.267 9.091 4.382 4.329 5.217 4.932 4.932 4.932 5.492 5.881 5.398 5.55 5.603 6.137 6.725 6.383 6.779 7.043 7.265 7.115 7.407 7.371 7.838 7.844 7.552 7.542 7.535 7.598 7.505 7.462 7.744 7.748 7.575 7.626 7.583 7.476 7.251 6.942 7.214 6.942 7.388 6.942 7.037 7.082 7.125 7.204 7.256 7.346 7.34 7.08 7.254 7.121 7.082 7.14 7.066 7.151 6.974 6.938 6.922 6.653 6.897 6.333 6.09 5.348 5.746 6.496 6.844 7.076 7.37 7.385 7.502 7.552 7.579 7.24 6.421 5.341 3.875 2.889 2.173 1.464 2.454 3.962 5.538 6.844 7.367 7.56 7.61 7.832 7.959 7.961 -9999 -9999 -9999 -9999 -9999 -9999 -9999 -9999 -9999 -9999 -9999 -9999 -9999 -9999 -9999 -9999 -9999 -9999 -9999 -9999 -9999 -9999 -9999 -9999 -9999 -9999 -9999 -9999 -9999 -9999 -9999 -9999
-9999 -9999 -9999 -9999 -9999 -9999 -9999 -9999 -9999 -9999 -9999 -9999 -9999 -9999 -9999 -9999 -9999 -9999 -9999 -9999 -9999 -9999 -9999 -9999 -9999 -9999 -9999 -9999 -9999 -9999 -9999 -9999 -9999 -9999 -9999 -9999 -9999 -9999 -9999 -9999 -9999 -9999 -9999 -9999 -9999 -9999 -9999 -9999 -9999 -9999 -9999 -9999 -9999 -9999 -9999 -9999 -9999 -9999 -9999 -9999 -9999 -9999 -9999 -9999 -9999 -9999 -9999 -9999 -9999 -9999 -9999 -9999 -9999 -9999 -9999 -9999 -9999 -9999 -9999 -9999 -9999 -9999 -9999 -9999 -9999 -9999 -9999 -9999 -9999 -9999 -9999 -9999 -9999 -9999 -9999 -9999 -9999 -9999 -9999 -9999 -9999 -9999 -9999 -9999 -9999 -9999 -9999 -9999 -9999 -9999 -9999 -9999 -9999 -9999 -9999 -9999 -9999 -9999 -9999 -9999 7.203 7.37 7.542 7.446 7.501 7.55 7.484 7.418 7.435 7.389 7.5 7.229 7.431 7.209 7.11 6.945 6.753 5.739 6.039 9.383 7.83 4.233 4.259 5.722 4.916 4.655 5.127 5.135 4.662 4.655 4.655 4.655 4.655 4.756 4.743 4.655 4.655 4.964 5.336 5.746 5.816 6.029 6.235 6.196 6.69 7.093 7.241 10.975 7.419 7.089 7.122 7.763 7.867 7.995 7.906 7.754 7.421 6.928 4.755 2.124 2.491 1.669 1.61 1.413 1.735 4.979 5.389 5.151 5.151 5.291 5.151 5.267 5.38 4.443 3.349 5.043 5.377 5.635 5.575 5.469 4.953 4.166 1.978 1.59 1.589 2.954 7.013 9.656 9.933 9.987 8.299 4.329 4.329 5.332 4.932 4.932 4.932 5.476 5.91 5.398 5.601 6.117 6.809 6.362 6.796 7.021 7.63 7.734 7.697 7.661 7.518 7.419 7.87 7.602 7.339 7.414 7.339 7.339 7.462 7.743 7.826 7.451 7.507 7.469 7.33 7.181 7.336 7.47 7.214 6.942 7.153 6.979 6.992 7.342 6.85 7.046 7.092 7.18 7.066 7.241 7.152 7.082 7.143 7.066 7.085 6.881 6.829 6.783 6.555 6.721 6.143 5.613 4.79 5.815 6.312 6.807 7.087 7.248 7.334 7.453 7.409 7.357 7.086 6.102 4.918 3.477 1.457 1.457 1.522 2.014 3.533 4.855 6.236 6.811 7.17 7.454 7.579 7.724 8.221 -9999 -9999 -9999 -9999 -9999 -9999 -9999 -9999 -9999 -9999 -9999 -9999 -9999 -9999 -9999 -9999 -9999 -9999 -9999 -9999 -9999 -9999 -9999 -9999 -9999 -9999 -9999 -9999 -9999 -9999 -9999 -9999
-9999 -9999 -9999 -9999 -9999 -9999 -9999 -9999 -9999 -9999 -9999 -9999 -9999 -9999 -9999 -9999 -9999 -9999 -9999 -9999 -9999 -9999 -9999 -9999 -9999 -9999 -9999 -9999 -9999 -9999 -9999 -9999 -9999 -9999 -9999 -9999 -9999 -9999 -9999 -9999 -9999 -9999 -9999 -9999 -9999 -9999 -9999 -9999 -9999 -9999 -9999 -9999 -9999 -9999 -9999 -9999 -9999 -9999 -9999 -9999 -9999 -9999 -9999 -9999 -9999 -9999 -9999 -9999 -9999 -9999 -9999 -9999 -9999 -9999 -9999 -9999 -9999 -9999 -9999 -9999 -9999 -9999 -9999 -9999 -9999 -9999 -9999 -9999 -9999 -9999 -9999 -9999 -9999 -9999 -9999 -9999 -9999 -9999 -9999 -9999 -9999 -9999 -9999 -9999 -9999 -9999 -9999 -9999 -9999 -9999 -9999 -9999 -9999 -9999 -9999 -9999 -9999 -9999 -9999 -9999 -9999 7.309 7.499 7.408 7.49 7.521 7.457 7.474 7.389 7.507 7.485 7.232 7.42 7.128 7.401 7.269 7.008 6.682 5.739 6.026 7.39 7.63 4.799 11.835 5.18 5.483 4.655 4.955 4.655 4.655 4.655 4.655 4.655 4.785 5.169 4.987 4.985 5.633 6.338 6.319 6.155 5.816 6.591 6.847 6.622 6.88 7.3 7.42 7.809 7.77 7.606 7.763 7.913 7.982 8.094 7.988 7.539 6.912 4.221 2.226 2.396 2.036 1.293 1.107 1.346 4.524 5.248 5.314 5.151 5.151 5.453 5.242 4.83 3.349 4.229 5.103 5.282 5.729 5.735 5.911 4.97 3.119 1.328 1.589 2.939 4.916 5.277 5.371 5.521 5.614 5.375 4.329 4.329 5.604 4.932 4.932 4.932 5.452 5.943 5.519 5.398 5.829 7.02 6.407 6.589 6.691 7.438 7.709 7.7 7.646 7.31 7.415 7.87 7.379 7.339 7.339 7.339 7.339 7.339 7.339 7.339 7.38 7.339 7.374 7.399 7.215 7.167 7.327 6.87 6.87 6.828 6.828 6.882 6.85 7.075 6.85 7.365 7.175 6.991 7.01 7.094 7.039 7.136 6.917 6.88 6.912 6.813 6.934 6.608 6.497 5.909 5.229 4.61 5.722 6.345 6.752 6.838 6.928 7.112 7.55 7.416 7.272 7.125 6.413 4.927 3.514 2.933 3.118 1.457 1.694 3.108 4.047 4.98 5.513 6.34 7.199 7.405 7.648 7.972 -9999 -9999 -9999 -9999 -9999 -9999 -9999 -9999 -9999 -9999 -9999 -9999 -9999 -9999 -9999 -9999 -9999 -9999 -9999 -9999 -9999 -9999 -9999 -9999 -9999 -9999 -9999 -9999 -9999 -9999 -9999 -9999
-9999 -9999 -9999 -9999 -9999 -9999 -9999 -9999 -9999 -9999 -9999 -9999 -9999 -9999 -9999 -9999 -9999 -9999 -9999 -9999 -9999 -9999 -9999 -9999 -9999 -9999 -9999 -9999 -9999 -9999 -9999 -9999 -9999 -9999 -9999 -9999 -9999 -9999 -9999 -9999 -9999 -9999 -9999 -9999 -9999 -9999 -9999 -9999 -9999 -9999 -9999 -9999 -9999 -9999 -9999 -9999 -9999 -9999 -9999 -9999 -9999 -9999 -9999 -9999 -9999 -9999 -9999 -9999 -9999 -9999 -9999 -9999 -9999 -9999 -9999 -9999 -9999 -9999 -9999 -9999 -9999 -9999 -9999 -9999 -9999 -9999 -9999 -9999 -9999 -9999 -9999 -9999 -9999 -9999 -9999 -9999 -9999 -9999 -9999 -9999 -9999 -9999 -9999 -9999 -9999 -9999 -9999 -9999 -9999 -9999 -9999 -9999 -9999 -9999 -9999 -9999 -9999 -9999 -9999 -9999 -9999 -9999 -9999 7.41 7.374 7.385 7.385 7.519 7.419 7.389 7.531 7.351 7.478 7.234 7.73 7.613 7.207 6.914 6.361 5.739 5.84 6.762 6.857 8.702 5.741 4.951 5.741 4.655 4.655 4.655 4.655 4.655 4.655 5.174 5.214 5.44 5.59 6.337 6.399 6.139 5.841 5.816 6.646 6.874 6.666 6.793 6.942 7.237 7.166 7.943 7.714 7.147 7.147 7.825 7.821 7.871 7.537 6.881 3.361 2.23 1.105 2.127 1.107 1.107 2.301 1.977 2.971 5.205 5.184 5.22 4.957 4.644 2.627 3.75 4.833 5.128 5.328 5.417 5.522 5.479 5.026 2.279 1.211 2.075 4.058 4.329 4.329 4.329 4.329 4.329 4.329 4.329 4.329 5.757 5.439 5.158 5.811 5.855 5.899 5.445 5.444 5.821 6.235 6.219 6.258 6.398 7.142 7.455 7.438 7.46 7.433 7.31 7.849 7.398 7.339 7.339 7.339 7.339 7.395 7.339 7.339 7.339 7.39 7.339 7.503 7.167 7.385 7.238 6.946 6.9 6.828 7.115 7.103 7.146 7.048 6.85 7.009 7.012 6.983 6.983 7.45 6.938 6.993 6.886 6.893 6.75 6.786 6.666 6.412 6.377 5.829 4.826 4.594 5.373 6.021 6.559 7.058 7.261 7.319 7.285 7.274 7.208 7.165 6.427 4.729 3.323 3.365 3.035 0.622 1.043 2.131 3.174 4.035 4.858 6.286 7.041 7.505 8.227 7.973 -9999 -9999 -9999 -9999 -9999 -9999 -9999 -9999 -9999 -9999 -9999 -9999 -9999 -9999 -9999 -9999 -9999 -9999 -9999 -9999 -9999 -9999 -9999 -9999 -9999 -9999 -9999 -9999 -9999 -9999 -9999 -9999
-9999 -9999 -9999 -9999 -9999 -9999 -9999 -9999 -9999 -9999 -9999 -9999 -9999 -9999 -9999 -9999 -9999 -9999 -9999 -9999 -9999 -9999 -9999 -9999 -9999 -9999 -9999 -9999 -9999 -9999 -9999 -9999 -9999 -9999 -9999 -9999 -9999 -9999 -9999 -9999 -9999 -9999 -9999 -9999 -9999 -9999 -9999 -9999 -9999 -9999 -9999 -9999 -9999 -9999 -9999 -9999 -9999 -9999 -9999 -9999 -9999 -9999 -9999 -9999 -9999 -9999 -9999 -9999 -9999 -9999 -9999 -9999 -9999 -9999 -9999 -9999 -9999 -9999 -9999 -9999 -9999 -9999 -9999 -9999 -9999 -9999 -9999 -9999 -9999 -9999 -9999 -9999 -9999 -9999 -9999 -9999 -9999 -9999 -9999 -9999 -9999 -9999 -9999 -9999 -9999 -9999 -9999 -9999 -9999 -9999 -9999 -9999 -9999 -9999 -9999 -9999 -9999 -9999 -9999 -9999 -9999 -9999 -9999 -9999 7.355 7.427 7.393 7.499 7.438 7.538 7.505 7.54 7.47 7.234 7.708 7.601 7.299 6.944 6.491 6.222 5.739 5.964 7.933 8.417 6.372 5.097 5.811 6.149 4.655 4.655 4.655 4.655 4.655 5.469 5.641 5.975 6.217 6.359 6.302 5.994 6.677 6.678 6.707 6.785 6.616 6.727 6.813 7.312 7.166 7.981 7.903 7.211 7.147 7.177 7.97 7.84 7.475 5.433 5.054 4.318 3.94 1.105 2.397 1.459 3.346 2.508 3.948 4.667 5.003 4.76 3.385 2.068 3.467 5.055 5.122 5.052 5.015 5.098 5.15 5.129 5.028 1.211 1.864 2.757 4.42 4.876 5.439 5.895 6.169 6.249 6.287 6.235 6.061 6.038 5.834 5.581 5.756 5.672 5.819 5.592 5.444 5.444 5.686 5.785 5.923 5.994 6.862 7.128 7.15 7.15 7.15 7.15 7.856 7.398 7.409 7.449 7.405 7.4 7.339 7.339 7.339 7.355 7.577 7.483 7.46 7.239 7.167 7.167 7.105 6.88 6.61 6.829 6.806 6.743 6.823 6.729 6.929 6.983 7.033 7.067 7.056 6.796 6.722 7.024 7.061 6.542 6.632 6.542 6.223 6.124 5.347 4.548 4.548 5.274 6.033 6.423 6.905 7.015 7.053 7.048 7.048 7 6.961 6.22 4.724 3.519 2.521 0.721 0.622 0.899 1.574 2.71 3.95 5.761 6.973 7.241 7.672 7.76 7.897 -9999 -9999 -9999 -9999 -9999 -9999 -9999 -9999 -9999 -9999 -9999 -9999 -9999 -9999 -9999 -9999 -9999 -9999 -9999 -9999 -9999 -9999 -9999 -9999 -9999 -9999 -9999 -9999 -9999 -9999 -9999 -9999
-9999 -9999 -9999 -9999 -9999 -9999 -9999 -9999 -9999 -9999 -9999 -9999 -9999 -9999 -9999 -9999 -9999 -9999 -9999 -9999 -9999 -9999 -9999 -9999 -9999 -9999 -9999 -9999 -9999 -9999 -9999 -9999 -9999 -9999 -9999 -9999 -9999 -9999 -9999 -9999 -9999 -9999 -9999 -9999 -9999 -9999 -9999 -9999 -9999 -9999 -9999 -9999 -9999 -9999 -9999 -9999 -9999 -9999 -9999 -9999 -9999 -9999 -9999 -9999 -9999 -9999 -9999 -9999 -9999 -9999 -9999 -9999 -9999 -9999 -9999 -9999 -9999 -9999 -9999 -9999 -9999 -9999 -9999 -9999 -9999 -9999 -9999 -9999 -9999 -9999 -9999 -9999 -9999 -9999 -9999 -9999 -9999 -9999 -9999 -9999 -9999 -9999 -9999 -9999 -9999 -9999 -9999 -9999 -9999 -9999 -9999 -9999 -9999 -9999 -9999 -9999 -9999 -9999 -9999 -9999 -9999 -9999 -9999 -9999 -9999 7.269 7.269 7.269 7.269 7.269 7.639 7.648 7.362 7.378 7.711 7.623 7.27 6.847 6.465 6.096 5.739 5.739 6.315 9.018 8.792 5.511 5.301 7.89 4.996 4.655 4.655 4.655 4.655 5.314 6.016 6.161 5.975 6.139 6.152 6.791 5.994 6.597 6.686 6.933 7.057 6.616 6.761 6.838 7.13 7.536 7.888 7.48 7.051 7.614 8.072 7.79 7.572 6.694 4.964 3.198 3.422 2.549 1.105 1.156 1.446 2.909 3.662 3.997 5.057 4.486 2.058 2.617 4.206 5.199 5.12 4.973 5.065 5.038 4.741 4.979 4.632 1.211 1.776 2.841 4.24 4.933 4.528 4.59 4.891 4.813 5.04 5.171 5.231 5.491 5.637 5.581 5.672 5.75 5.886 6.058 6.348 6.247 6.373 6.468 6.49 6.637 6.89 6.898 7.04 7.443 7.257 7.199 7.862 7.395 7.391 7.391 7.391 7.339 7.35 7.525 7.31 7.31 7.288 7.288 7.239 7.268 7.167 7.297 7.153 6.914 6.61 6.768 6.665 6.568 6.487 6.52 6.733 6.855 6.924 6.957 6.968 6.897 6.771 6.722 6.99 6.841 6.542 6.588 5.7 5.7 4.966 4.548 4.548 5.032 5.954 6.121 6.557 6.935 7.151 7.109 7.245 6.886 6.602 5.435 4.63 3.526 2.153 0.666 0.034 0.791 1.514 3.562 4.576 5.962 7.263 7.517 7.63 7.926 7.88 -9999 -9999 -9999 -9999 -9999 -9999 -9999 -9999 -9999 -9999 -9999 -9999 -9999 -9999 -9999 -9999 -9999 -9999 -9999 -9999 -9999 -9999 -9999 -9999 -9999 -9999 -9999 -9999 -9999 -9999 -9999 -9999
-9999 -9999 -9999 -9999 -9999 -9999 -9999 -9999 -9999 -9999 -9999 -9999 -9999 -9999 -9999 -9999 -9999 -9999 -9999 -9999 -9999 -9999 -9999 -9999 -9999 -9999 -9999 -9999 -9999 -9999 -9999 -9999 -9999 -9999 -9999 -9999 -9999 -9999 -9999 -9999 -9999 -9999 -9999 -9999 -9999 -9999 -9999 -9999 -9999 -9999 -9999 -9999 -9999 -9999 -9999 -9999 -9999 -9999 -9999 -9999 -9999 -9999 -9999 -9999 -9999 -9999 -9999 -9999 -9999 -9999 -9999 -9999 -9999 -9999 -9999 -9999 -9999 -9999 -9999 -9999 -9999 -9999 -9999 -9999 -9999 -9999 -9999 -9999 -9999 -9999 -9999 -9999 -9999 -9999 -9999 -9999 -9999 -9999 -9999 -9999 -9999 -9999 -9999 -9999 -9999 -9999 -9999 -9999 -9999 -9999 -9999 -9999 -9999 -9999 -9999 -9999 -9999 -9999 -9999 -9999 -9999 -9999 -9999 -9999 -9999 -9999 7.269 7.298 7.362 7.735 7.615 7.682 7.292 7.207 7.53 7.584 7.235 6.755 6.424 6.205 5.913 6.429 6.01 6.604 10.197 7.623 5.301 8.764 6.656 4.655 4.655 4.655 4.655 5.091 5.802 6.109 6.698 6.416 6.769 6.741 6.716 6.681 6.961 6.873 6.988 6.836 6.616 6.446 6.667 7.007 7.413 7.444 6.911 7.959 8.428 7.682 7.073 4.592 2.382 2.382 2.382 3.981 2.051 1.105 1.691 1.398 2.109 3.928 4.982 5.029 3.457 1.367 2.692 3.827 3.995 4.398 5.017 4.832 4.782 4.338 3.636 1.621 1.211 2.99 4.478 4.557 4.504 4.443 4.583 4.78 4.796 5.004 5.094 5.181 5.339 5.495 5.509 5.539 5.669 5.777 6.205 6.205 6.302 6.403 6.584 6.682 6.896 7.026 7.25 7.548 7.52 7.461 7.864 8.075 8.203 8.147 8.143 7.966 7.874 7.79 7.662 7.655 7.627 7.355 7.261 7.249 7.167 7.422 7.178 6.983 6.851 6.61 6.352 6.143 6.08 6.237 6.434 6.591 6.754 6.851 6.762 6.749 6.678 6.317 6.762 6.986 6.99 6.79 6.417 5.711 4.548 4.548 4.548 4.548 5.207 5.926 6.356 6.771 6.993 6.979 6.901 6.338 5.421 4.672 3.804 3.184 2.247 1.103 0.034 1.19 1.584 3.245 4.777 6.636 7.311 7.673 7.651 7.86 7.811 -9999 -9999 -9999 -9999 -9999 -9999 -9999 -9999 -9999 -9999 -9999 -9999 -9999 -9999 -9999 -9999 -9999 -9999 -9999 -9999 -9999 -9999 -9999 -9999 -9999 -9999 -9999 -9999 -9999 -9999 -9999 -9999
-9999 -9999 -9999 -9999 -9999 -9999 -9999 -9999 -9999 -9999 -9999 -9999 -9999 -9999 -9999 -9999 -9999 -9999 -9999 -9999 -9999 -9999 -9999 -9999 -9999 -9999 -9999 -9999 -9999 -9999 -9999 -9999 -9999 -9999 -9999 -9999 -9999 -9999 -9999 -9999 -9999 -9999 -9999 -9999 -9999 -9999 -9999 -9999 -9999 -9999 -9999 -9999 -9999 -9999 -9999 -9999 -9999 -9999 -9999 -9999 -9999 -9999 -9999 -9999 -9999 -9999 -9999 -9999 -9999 -9999 -9999 -9999 -9999 -9999 -9999 -9999 -9999 -9999 -9999 -9999 -9999 -9999 -9999 -9999 -9999 -9999 -9999 -9999 -9999 -9999 -9999 -9999 -9999 -9999 -9999 -9999 -9999 -9999 -9999 -9999 -9999 -9999 -9999 -9999 -9999 -9999 -9999 -9999 -9999 -9999 -9999 -9999 -9999 -9999 -9999 -9999 -9999 -9999 -9999 -9999 -9999 -9999 -9999 -9999 -9999 -9999 -9999 7.511 7.508 7.791 7.653 7.152 7.131 7.69 7.693 7.655 7.354 6.698 6.059 5.913 6.087 6.36 6.01 6.01 6.874 10.707 7.419 6.865 10.773 6.867 4.655 4.699 5.136 5.956 5.942 6.009 6.708 6.416 6.686 6.955 6.933 6.879 7.135 7.069 6.809 6.556 6.579 6.393 6.14 6.442 6.478 7.078 6.911 7.551 7.366 7.131 4.263 2.382 2.382 2.382 2.382 2.382 4.376 1.685 1.105 1.105 2.038 3.689 5.26 4.614 2.951 1.076 1.322 1.076 1.076 3.491 4.578 4.916 4.789 4.491 2.797 1.211 1.36 2.277 4.231 4.492 4.608 4.443 4.542 4.682 4.833 5.108 5.207 5.263 5.368 5.544 5.646 5.751 5.851 5.902 6.233 6.447 6.659 6.595 6.569 6.85 6.819 7.073 7.64 7.602 7.717 7.632 7.861 8.24 8.377 8.234 8.125 8.033 7.96 7.96 7.854 7.8 7.974 7.623 7.477 7.245 7.255 7.675 7.32 7 6.705 6.434 6.136 5.644 5.507 5.986 6.108 6.309 6.401 6.463 6.424 6.271 6.246 6.07 6.452 6.811 6.751 6.734 6.413 6.035 5.386 5.144 4.905 4.548 4.707 5.125 5.779 6.346 6.645 6.697 6.191 5.588 4.698 3.791 2.854 2.105 1.328 0.088 0.006 2.155 2.004 4.024 5.076 6.784 7.364 7.668 7.735 7.764 7.62 -9999 -9999 -9999 -9999 -9999 -9999 -9999 -9999 -9999 -9999 -9999 -9999 -9999 -9999 -9999 -9999 -9999 -9999 -9999 -9999 -9999 -9999 -9999 -9999 -9999 -9999 -9999 -9999 -9999 -9999 -9999 -9999
-9999 -9999 -9999 -9999 -9999 -9999 -9999 -9999 -9999 -9999 -9999 -9999 -9999 -9999 -9999 -9999 -9999 -9999 -9999 -9999 -9999 -9999 -9999 -9999 -9999 -9999 -9999 -9999 -9999 -9999 -9999 -9999 -9999 -9999 -9999 -9999 -9999 -9999 -9999 -9999 -9999 -9999 -9999 -9999 -9999 -9999 -9999 -9999 -9999 -9999 -9999 -9999 -9999 -9999 -9999 -9999 -9999 -9999 -9999 -9999 -9999 -9999 -9999 -9999 -9999 -9999 -9999 -9999 -9999 -9999 -9999 -9999 -9999 -9999 -9999 -9999 -9999 -9999 -9999 -9999 -9999 -9999 -9999 -9999 -9999 -9999 -9999 -9999 -9999 -9999 -9999 -9999 -9999 -9999 -9999 -9999 -9999 -9999 -9999 -9999 -9999 -9999 -9999 -9999 -9999 -9999 -9999 -9999 -9999 -9999 -9999 -9999 -9999 -9999 -9999 -9999 -9999 -9999 -9999 -9999 -9999 -9999 -9999 -9999 -9999 -9999 -9999 -9999 7.695 7.695 7.459 7.074 7.229 7.453 7.44 7.463 7.421 7.124 6.727 6.351 6.763 6.796 6.79 6.01 6.01 7.234 9.747 7.826 12.524 8.252 6.376 5.306 5.556 5.721 6.277 7.3 6.529 6.416 6.416 6.964 6.689 6.564 6.72 6.667 6.564 6.556 6.556 6.286 6.138 5.991 6.132 6.061 6.585 6.627 6.991 6.685 2.382 2.382 2.382 2.382 2.382 2.409 3.604 4.405 1.105 1.766 2.133 3.616 4.62 3.578 2.015 1.133 1.076 1.155 1.076 1.076 2.124 4.101 4.874 4.826 2.877 1.211 1.211 4.018 4.328 4.576 4.381 4.427 4.597 4.683 4.902 4.926 5.031 5.152 5.18 5.352 5.572 5.616 5.732 6.428 6.246 6.689 6.724 6.674 6.621 6.844 7.158 6.819 7.444 7.463 7.862 7.806 7.894 8.254 8.441 8.32 8.171 8.146 8.115 8.156 8.013 7.8 7.93 7.734 7.475 7.207 7.134 7.142 6.98 6.764 6.44 6.282 5.87 5.728 5.304 5.402 5.552 5.703 5.854 5.873 5.923 5.894 5.8 5.573 6.066 6.542 6.561 6.545 6.36 6.014 5.479 5.135 4.704 4.276 4.128 4.545 5.231 5.422 6.354 5.737 5.6 4.949 4.016 2.987 2.305 1.034 0.381 0.006 0.224 3.627 3.96 4.066 5.584 6.938 7.647 7.762 7.657 7.745 7.66 -9999 -9999 -9999 -9999 -9999 -9999 -9999 -9999 -9999 -9999 -9999 -9999 -9999 -9999 -9999 -9999 -9999 -9999 -9999 -9999 -9999 -9999 -9999 -9999 -9999 -9999 -9999 -9999 -9999 -9999 -9999 -9999
