ncols         478
nrows         30
xllcorner     273015
yllcorner     3297555
cellsize      30
NODATA_value  -9999
-9999 -9999 -9999 15.101 15.092 15.28 14.98 14.788 15.949 14.811 14.793 15.007 14.752 14.803 14.743 14.763 14.699 14.517 14.274 14.085 14.085 14.269 14.056 14.003 13.948 13.743 16.896 17.446 16.925 13.759 14.14 14.128 13.938 13.877 13.694 13.693 13.642 13.551 14.234 13.312 14.07 13.507 13.391 13.353 13.695 13.59 13.761 13.717 13.717 13.717 13.717 13.717 13.912 13.717 13.785 13.742 13.733 13.822 13.857 13.629 13.842 13.992 14.473 13.693 13.763 13.867 13.46 13.919 13.704 13.54 13.554 13.729 13.352 13.598 13.806 13.477 13.52 13.502 13.578 13.476 13.42 13.551 13.668 13.523 13.591 13.409 13.587 13.346 13.477 13.197 13.196 13.24 13.483 13.476 13.278 12.968 13.017 12.972 12.998 13.056 13.153 13.286 13.202 13.136 13.073 13.065 13.065 13.119 13.041 13.182 13.307 13.009 13.009 13.054 13.054 13.096 13.238 13.135 13.236 13.309 13.337 13.39 13.444 13.478 13.436 13.585 13.388 13.388 13.357 13.577 13.365 13.328 13.42 13.574 13.53 13.476 13.32 13.32 13.32 13.32 13.386 13.572 13.983 14 14.005 13.644 13.663 13.68 13.742 13.451 13.666 13.651 13.693 13.265 13.697 13.634 13.527 13.503 13.29 13.184 13.183 13.162 13.144 13.059 12.9 12.874 12.874 12.874 12.874 12.874 13.721 13.898 13.96 14.027 14.004 13.921 13.901 13.96 13.931 13.977 14.107 14.16 14.08 14.08 14.08 14.378 14.278 16.398 13.65 11.028 11.702 12.52 10.494 10.494 13.244 14.59 13.948 13.85 13.75 13.352 12.359 12.075 12.201 12.056 11.243 11.23 11.481 11.687 11.711 9.528 10.404 10.941 10.72 12.414 10.696 11.643 11.447 11.447 12.184 11.753 11.577 11.794 11.74 11.248 11.248 11.248 11.757 11.362 11.162 11.162 11.162 11.162 11.171 11.207 11.224 11.039 11.527 11.113 11.01 11.589 9.528 12.199 11.721 11.234 11.251 11.263 11.263 11.263 14.546 13.091 11.111 11.249 11.277 11.353 11.646 12.024 12.215 11.596 11.071 10.818 10.938 10.911 11.167 11.039 10.964 10.974 10.854 10.811 10.627 10.548 10.011 7.871 10.772 10.923 10.929 11.02 10.631 10.653 10.653 10.788 10.788 11.226 11.248 11.922 11.826 12.083 12.175 11.564 11.314 11.79 11.629 11.648 11.381 10.884 10.637 10.65 10.536 10.515 10.531 10.6 10.631 10.667 10.696 10.574 10.789 10.881 10.92 10.981 10.783 10.734 10.582 10.453 10.454 10.6 10.037 10.037 10.037 10.077 10.098 10.061 9.47 7.213 7.213 8.269 9.097 9.49 10.06 10.297 10.331 10.269 10.126 10.098 10.081 9.968 10.007 10.19 10.438 10.561 10.629 10.574 10.446 10.311 10.311 10.893 10.969 10.846 10.846 11.184 11.439 11.61 11.633 11.841 11.962 11.862 11.481 11.398 11.407 11.272 11.345 11.439 11.538 11.572 10.824 11.076 -9999 -9999 -9999 -9999 -9999 -9999 -9999 -9999 -9999 -9999 -9999 -9999 -9999 -9999 -9999 -9999 -9999 -9999 -9999 -9999 -9999 -9999 -9999 -9999 -9999 -9999 -9999 -9999 -9999 -9999 -9999 -9999 -9999 -9999 -9999 -9999 -9999 -9999 -9999 -9999 -9999 -9999 -9999 -9999 -9999 -9999 -9999 -9999 -9999 -9999 -9999 -9999 -9999 -9999 -9999 -9999 -9999 -9999 -9999 -9999 -9999 -9999 -9999 -9999 -9999 -9999 -9999 -9999 -9999 -9999 -9999 -9999 -9999 -9999 -9999 -9999 -9999 -9999 -9999 -9999 -9999 -9999 -9999 -9999 -9999 -9999 -9999 -9999 -9999 -9999 -9999 -9999 -9999 -9999 -9999 -9999 -9999 -9999 -9999 -9999 -9999 -9999 -9999 -9999 -9999 -9999 -9999 -9999 -9999 -9999 -9999 -9999 -9999 -9999
-9999 -9999 -9999 -9999 15.009 15.2 15.355 14.729 15.956 15.059 14.76 14.795 14.662 14.73 14.912 15.739 14.938 17.82 14.221 14.115 14.141 14.43 14.022 14.179 13.901 13.738 17.653 18.228 17.661 13.621 13.884 13.686 13.88 13.793 13.659 13.733 13.551 13.551 13.716 14.005 13.312 13.319 13.449 13.685 13.7 13.712 13.907 13.879 13.717 13.76 13.927 13.821 13.717 13.717 13.823 13.733 13.733 13.733 13.733 13.688 13.709 13.733 13.789 13.693 13.693 13.663 13.46 13.721 13.575 13.582 13.523 13.616 13.352 13.64 13.696 13.477 13.479 13.679 13.317 13.503 13.478 13.42 13.42 13.42 13.437 13.409 13.559 13.406 13.395 13.117 13.341 13.262 13.238 13.447 13.138 12.968 12.975 12.986 13.256 13.123 13.056 13.324 13.356 13.219 13.182 13.109 13.177 13.065 13.051 13.195 13.074 13.009 13.079 13.055 13.158 13.174 13.378 13.483 13.277 13.341 13.309 13.337 13.383 13.326 13.438 13.463 13.554 13.552 13.341 13.341 13.42 13.341 13.328 13.328 13.493 13.32 13.42 13.624 13.685 13.699 13.534 14 13.739 13.7 13.789 13.543 13.543 13.543 13.596 13.568 13.657 13.598 13.794 13.571 13.563 13.537 13.485 13.51 13.42 13.186 13.137 12.984 12.874 12.874 12.874 12.874 12.874 12.874 13.822 13.99 14.012 14.025 14.031 13.895 13.961 14.019 13.935 13.885 13.885 13.952 14.042 14.138 14.091 14.162 14.273 14.08 14.301 16.365 12.504 11.028 11.358 12.044 13.045 11.13 10.494 12.314 14.04 13.509 12.955 12.727 11.722 12.031 12.185 11.187 12.438 11.277 11.751 11.804 11.889 9.528 10.852 10.705 11.298 12.411 11.004 11.687 11.777 11.664 11.806 11.946 11.641 11.846 11.797 11.248 11.248 11.248 11.762 11.593 11.414 11.337 11.626 11.417 11.165 11.408 11.191 11.147 11.137 11.01 11.13 10.385 9.758 9.528 9.528 11.274 11.465 11.372 11.545 12.229 16.871 16.653 14.152 10.973 11.074 11.101 11.457 11.809 11.652 11.379 11.041 10.494 10.494 10.494 11.404 11.237 10.72 10.924 10.657 10.749 10.302 10.415 7.871 8.315 10.936 10.935 10.923 11.014 10.656 10.715 10.653 10.862 10.866 11.302 11.466 11.941 12.006 11.956 12.042 11.861 11.314 11.502 11.519 11.468 11.292 11.085 10.557 10.499 10.499 10.499 10.499 10.563 10.517 10.897 10.574 10.869 10.864 10.872 10.889 10.997 10.727 10.607 10.453 10.453 10.453 10.453 10.037 10.037 10.037 10.046 10.041 10.041 9.919 9.83 9.277 7.213 7.213 8.696 9.762 9.988 10.033 9.91 9.788 9.9 9.733 10.048 9.97 9.905 9.905 10.349 10.543 10.552 10.311 10.688 10.504 10.758 11.027 10.954 10.995 11.156 11.485 11.607 11.571 11.819 11.976 11.858 11.429 11.427 11.447 11.352 11.318 11.322 11.425 11.489 10.905 11.083 -9999 -9999 -9999 -9999 -9999 -9999 -9999 -9999 -9999 -9999 -9999 -9999 -9999 -9999 -9999 -9999 -9999 -9999 -9999 -9999 -9999 -9999 -9999 -9999 -9999 -9999 -9999 -9999 -9999 -9999 -9999 -9999 -9999 -9999 -9999 -9999 -9999 -9999 -9999 -9999 -9999 -9999 -9999 -9999 -9999 -9999 -9999 -9999 -9999 -9999 -9999 -9999 -9999 -9999 -9999 -9999 -9999 -9999 -9999 -9999 -9999 -9999 -9999 -9999 -9999 -9999 -9999 -9999 -9999 -9999 -9999 -9999 -9999 -9999 -9999 -9999 -9999 -9999 -9999 -9999 -9999 -9999 -9999 -9999 -9999 -9999 -9999 -9999 -9999 -9999 -9999 -9999 -9999 -9999 -9999 -9999 -9999 -9999 -9999 -9999 -9999 -9999 -9999 -9999 -9999 -9999 -9999 -9999 -9999 -9999 -9999 -9999 -9999 -9999
-9999 -9999 -9999 -9999 14.932 15.124 15.125 14.961 14.729 14.729 14.93 14.78 14.535 14.64 15.104 15.212 15.037 17.538 14.205 14.059 14.256 14.298 14.136 14.137 13.949 13.551 18.387 19.255 18.334 13.592 13.631 13.598 13.893 13.893 13.636 13.675 13.551 13.753 13.797 13.505 13.52 13.575 13.665 13.623 13.79 13.835 13.775 13.843 13.883 13.893 13.972 13.922 13.823 13.717 14.01 13.85 13.776 13.872 13.965 13.684 13.684 13.712 13.868 13.83 13.821 13.847 13.429 13.705 13.574 13.574 13.523 13.523 13.352 13.666 13.548 13.525 13.509 13.383 13.317 13.454 13.455 13.493 13.535 13.499 13.481 13.626 13.611 13.472 13.378 13.117 13.184 13.298 13.212 13.119 13.252 12.968 13.094 13.128 13.087 13.227 13.159 13.116 13.342 13.117 13.117 13.109 13.129 13.051 13.094 13.033 13.167 13.009 13.009 13.009 13.009 13.16 13.16 13.208 13.373 13.468 13.62 13.378 13.399 13.331 13.307 13.385 13.352 13.4 13.502 13.341 13.341 13.39 13.412 13.398 13.484 13.524 13.361 13.542 13.542 13.592 13.585 14.095 13.695 13.543 13.543 13.543 13.543 13.657 13.543 13.834 13.489 13.35 13.521 13.544 13.576 13.485 13.492 13.509 13.532 13.25 13.096 12.874 12.874 12.874 13.004 12.874 13.878 14.079 14.01 14.062 13.865 13.866 13.885 13.9 13.895 13.895 14.023 14.007 13.955 13.885 14.008 13.998 14.08 14.08 14.08 14.08 14.914 15.982 11.069 11.028 11.443 11.358 13.114 12.917 12.82 10.494 10.494 11.217 12.942 11.75 11.065 11.168 11.187 11.531 11.837 11.873 11.736 11.771 9.528 11.731 11.993 11.491 11.594 12.569 11.135 12.388 11.713 11.664 11.801 11.818 11.713 11.629 11.543 11.248 11.248 11.248 11.805 11.507 11.37 11.361 11.454 11.321 11.343 11.437 11.207 11.01 11.01 11.181 11.118 10.99 10.409 11.613 9.528 9.528 11.436 12.094 11.435 11.05 11.124 15.574 15.545 13.88 10.831 11.018 10.996 11.896 11.409 10.991 10.494 11 10.494 10.494 10.8 10.494 10.74 10.514 10.718 11.004 10.578 8.735 7.871 10.22 11.277 10.927 10.939 11.016 10.754 11.096 10.788 10.836 11.081 11.235 11.507 11.862 12.005 11.986 12.08 11.528 11.314 11.826 11.844 11.818 11.595 11.571 10.976 10.768 10.712 10.652 10.633 10.499 10.616 10.699 10.574 10.809 10.798 10.812 10.866 10.901 10.689 10.7 10.596 10.52 10.453 10.476 10.54 10.037 10.256 10.212 10.102 10.268 10.174 9.972 10.346 9.481 9.286 7.213 8.695 9.633 7.213 9.39 9.753 9.72 9.758 10.141 10.309 10.27 10.163 9.905 10.032 10.025 10.38 10.324 10.259 10.587 10.903 10.973 10.9 11.17 11.312 11.457 11.484 11.492 11.664 11.657 11.062 11.212 11.25 11.151 11.185 11.258 11.326 11.456 10.805 10.959 -9999 -9999 -9999 -9999 -9999 -9999 -9999 -9999 -9999 -9999 -9999 -9999 -9999 -9999 -9999 -9999 -9999 -9999 -9999 -9999 -9999 -9999 -9999 -9999 -9999 -9999 -9999 -9999 -9999 -9999 -9999 -9999 -9999 -9999 -9999 -9999 -9999 -9999 -9999 -9999 -9999 -9999 -9999 -9999 -9999 -9999 -9999 -9999 -9999 -9999 -9999 -9999 -9999 -9999 -9999 -9999 -9999 -9999 -9999 -9999 -9999 -9999 -9999 -9999 -9999 -9999 -9999 -9999 -9999 -9999 -9999 -9999 -9999 -9999 -9999 -9999 -9999 -9999 -9999 -9999 -9999 -9999 -9999 -9999 -9999 -9999 -9999 -9999 -9999 -9999 -9999 -9999 -9999 -9999 -9999 -9999 -9999 -9999 -9999 -9999 -9999 -9999 -9999 -9999 -9999 -9999 -9999 -9999 -9999 -9999 -9999 -9999 -9999 -9999
-9999 -9999 -9999 -9999 14.849 15.037 14.736 14.909 14.729 14.866 14.996 14.764 14.504 14.683 14.909 15.035 14.811 14.709 13.9 13.882 13.882 13.882 13.882 14.009 13.976 13.551 18.977 20.311 18.951 13.551 13.551 13.551 13.858 13.828 13.707 13.594 13.551 13.747 13.798 13.551 13.717 13.696 13.646 13.874 13.837 13.895 13.95 13.905 13.843 13.878 13.883 13.823 13.871 13.717 14.056 14.076 13.84 13.788 13.684 13.728 13.809 13.858 13.64 13.589 13.589 13.703 13.372 13.662 13.631 13.734 13.526 13.566 13.352 13.453 13.446 13.554 13.587 13.7 13.521 13.317 13.317 13.317 13.317 13.388 13.328 13.444 13.444 13.552 13.4 13.091 13.206 13.171 13.247 13.019 13.019 12.968 13.52 13.457 13.488 13.202 13.288 13.116 13.348 13.342 13.174 13.109 13.226 13.343 13.188 13.018 13.009 13.009 13.009 13.63 13.169 13.334 13.175 13.421 13.341 13.253 13.253 13.416 13.279 13.307 13.355 13.328 13.328 13.334 13.431 13.363 13.476 13.454 13.368 13.361 13.361 13.361 13.408 13.543 13.6 13.631 13.59 14.232 13.773 13.543 13.543 13.543 13.543 13.641 13.543 13.772 13.35 13.445 13.57 13.54 13.503 13.485 13.485 13.581 13.35 13.304 13.015 12.874 13.155 12.896 13.973 14.194 14.013 13.999 13.754 13.754 13.792 13.898 13.832 13.854 13.9 13.958 13.937 13.885 13.885 13.885 14.002 13.998 14.093 14.295 14.336 14.08 15.072 15.27 12.038 11.423 11.377 11.358 13.117 13.355 13.371 12.57 11.655 10.494 10.494 10.494 11.511 11.376 11.429 11.881 12.118 10.494 9.528 9.528 11.783 11.719 11.049 12.062 11.491 12.444 11.135 11.684 11.696 11.664 12.215 11.664 11.68 11.754 11.559 11.248 11.248 11.248 11.781 11.951 11.304 11.207 11.207 11.207 11.207 11.207 11.379 11.157 11.095 11.01 11.04 11.123 10.692 10.625 9.6 9.528 12.229 11.386 11.145 11.119 11.025 10.867 13.877 13.966 12.417 10.831 10.926 11.083 11.344 11.213 11.012 10.494 10.494 10.494 10.494 10.687 10.494 10.693 10.489 10.714 7.871 7.871 8.558 11.072 11.308 10.91 10.917 11.033 10.754 11.084 10.887 10.881 11.061 11.23 11.452 11.788 12.038 12.203 12.06 11.88 11.321 11.486 11.59 11.65 11.461 11.222 11.193 10.695 10.572 10.499 10.499 10.499 10.636 10.682 10.64 10.574 10.515 10.648 10.679 10.732 10.655 10.774 10.655 10.567 10.487 10.482 10.43 10.037 10.363 10.4 10.067 10.473 10.48 10.529 10.384 9.803 9.71 9.17 7.213 7.213 9.354 7.213 9.328 9.648 9.86 9.678 9.951 10.011 10.18 10.11 9.905 9.432 9.44 9.924 10.218 10.266 10.516 10.9 11.035 11.138 11.137 11.205 11.231 11.261 11.357 11.277 10.987 11.133 11.06 11.043 11.062 10.919 10.779 10.569 10.569 10.567 -9999 -9999 10.806 10.648 -9999 -9999 -9999 -9999 -9999 -9999 -9999 -9999 -9999 -9999 -9999 -9999 -9999 -9999 -9999 -9999 -9999 -9999 -9999 -9999 -9999 -9999 -9999 -9999 -9999 -9999 -9999 -9999 -9999 -9999 -9999 -9999 -9999 -9999 -9999 -9999 -9999 -9999 -9999 -9999 -9999 -9999 -9999 -9999 -9999 -9999 -9999 -9999 -9999 -9999 -9999 -9999 -9999 -9999 -9999 -9999 -9999 -9999 -9999 -9999 -9999 -9999 -9999 -9999 -9999 -9999 -9999 -9999 -9999 -9999 -9999 -9999 -9999 -9999 -9999 -9999 -9999 -9999 -9999 -9999 -9999 -9999 -9999 -9999 -9999 -9999 -9999 -9999 -9999 -9999 -9999 -9999 -9999 -9999 -9999 -9999 -9999 -9999 -9999 -9999 -9999 -9999 -9999 -9999 -9999 -9999 -9999 -9999 -9999 -9999
-9999 -9999 -9999 -9999 14.725 15.016 14.736 14.919 15.099 14.729 14.646 14.662 14.466 14.697 14.778 14.709 14.632 14.6 14.037 13.91 13.962 14.003 13.966 13.882 13.789 13.551 19.476 20.321 19.385 13.555 13.551 13.551 13.553 13.594 13.551 13.551 13.551 13.551 13.551 13.624 13.759 13.646 13.831 13.831 13.729 14.383 13.843 13.843 13.905 14.025 13.823 13.982 13.89 13.765 13.863 13.604 13.799 13.842 13.669 13.724 13.887 13.892 13.786 13.589 13.589 13.742 13.361 13.61 13.526 13.526 13.575 13.558 13.352 13.499 13.446 13.446 13.446 13.403 13.34 13.457 13.509 13.317 13.317 13.328 13.385 13.429 13.467 13.374 13.396 13.091 13.198 13.198 13.171 13.456 13.34 12.968 13.577 13.489 13.51 13.414 13.314 13.116 13.116 13.364 13.109 13.15 13.509 13.31 13.171 13.026 13.009 13.009 13.009 13.692 13.169 13.169 13.228 13.379 13.514 13.597 13.58 13.253 13.583 13.592 13.66 13.542 13.528 13.421 13.364 13.398 13.493 13.4 13.381 13.361 13.361 13.389 13.361 13.501 13.361 13.361 13.48 13.61 13.602 13.69 13.543 13.89 13.735 13.68 13.762 13.543 13.35 13.541 13.363 13.496 13.54 13.499 13.592 13.45 13.205 13.205 13.345 13.365 14.08 14.246 14.072 14.02 13.696 13.696 13.8 13.794 13.773 13.738 13.859 13.87 13.964 13.804 13.879 14.034 14.058 13.951 13.885 14.072 14.193 14.197 14.335 14.342 15.44 14.432 12.606 11.819 11.358 11.358 12.992 13.136 12.583 12.022 12.433 12.083 11.913 12.159 10.494 10.494 10.494 10.494 10.494 11.15 11.363 11.803 10.83 11.049 11.505 11.731 11.754 11.506 11.163 11.665 11.664 11.835 11.664 11.807 11.67 12.118 13.178 12.803 11.516 11.248 11.929 11.983 11.582 11.613 11.756 11.76 11.556 11.96 11.32 11.188 11.193 11.15 11.08 11.098 10.625 10.636 11.126 9.528 11.817 11.424 11.53 11.53 11.37 10.867 10.867 12.471 12.984 10.831 11.121 11.032 11.174 10.914 10.812 10.792 10.494 10.765 10.94 10.882 10.468 10.447 10.284 7.871 7.995 9.695 10.77 11.023 11.005 10.839 10.914 10.994 10.754 11.113 10.881 11.985 11.858 12.013 12.001 11.951 12.146 12.013 11.832 11.721 11.321 11.489 11.505 11.51 11.554 11.233 11.352 10.78 10.499 10.499 10.499 10.544 10.55 10.556 10.393 10.267 10.292 10.759 10.955 10.704 10.655 10.959 10.824 10.641 10.623 10.498 10.513 10.242 10.416 10.471 10.133 9.575 9.493 9.724 9.137 9.137 9.438 9.793 9.59 7.213 7.213 8.945 9.421 9.557 9.616 9.808 9.74 9.413 9.829 9.82 9.484 9.59 9.432 9.811 9.51 10.023 10.116 10.553 10.783 10.709 10.97 11.039 10.787 10.975 10.945 10.762 11.025 11.029 11.028 10.968 10.83 10.631 10.569 10.761 11.047 10.718 10.604 10.921 11.156 10.648 -9999 -9999 -9999 -9999 -9999 -9999 -9999 -9999 -9999 -9999 -9999 -9999 -9999 -9999 -9999 -9999 -9999 -9999 -9999 -9999 -9999 -9999 -9999 -9999 -9999 -9999 -9999 -9999 -9999 -9999 -9999 -9999 -9999 -9999 -9999 -9999 -9999 -9999 -9999 -9999 -9999 -9999 -9999 -9999 -9999 -9999 -9999 -9999 -9999 -9999 -9999 -9999 -9999 -9999 -9999 -9999 -9999 -9999 -9999 -9999 -9999 -9999 -9999 -9999 -9999 -9999 -9999 -9999 -9999 -9999 -9999 -9999 -9999 -9999 -9999 -9999 -9999 -9999 -9999 -9999 -9999 -9999 -9999 -9999 -9999 -9999 -9999 -9999 -9999 -9999 -9999 -9999 -9999 -9999 -9999 -9999 -9999 -9999 -9999 -9999 -9999 -9999 -9999 -9999 -9999 -9999 -9999 -9999 -9999 -9999
-9999 -9999 -9999 -9999 14.586 14.88 14.603 14.859 14.729 14.99 14.646 14.649 14.672 14.382 14.48 14.635 14.89 15.359 13.925 13.634 13.63 13.928 13.821 13.76 13.551 13.551 16.054 16.641 15.951 13.551 13.731 13.551 14.328 14.437 13.551 13.551 13.551 13.551 13.551 13.603 13.657 13.785 13.667 13.786 13.729 14.19 13.843 13.844 13.865 13.97 13.857 13.872 13.8 13.876 13.914 13.604 13.824 13.814 13.659 13.843 13.918 13.76 13.68 13.589 13.803 13.589 13.361 13.636 13.574 13.569 13.838 13.647 13.352 13.491 13.446 13.557 13.507 13.58 13.34 13.349 13.43 13.383 13.388 13.317 13.51 13.389 13.459 13.277 13.31 13.091 13.252 13.262 13.257 13.348 13.395 12.968 13.317 13.22 13.492 13.116 13.334 13.116 13.161 13.321 13.116 13.367 13.271 13.323 13.035 13.009 13.114 13.154 13.056 13.618 13.169 13.169 13.169 13.352 13.192 13.25 13.253 13.253 13.616 13.621 13.659 13.684 13.5 13.529 13.524 13.364 13.806 13.361 13.361 13.515 13.361 13.395 13.361 13.377 13.361 13.426 13.509 13.43 13.539 13.587 13.726 13.802 13.86 13.935 13.879 13.35 13.35 13.361 13.387 13.505 13.728 13.548 13.423 13.205 13.483 13.278 14.38 14.308 14.104 13.949 13.696 13.696 13.696 13.696 13.696 13.746 13.778 13.727 13.823 13.778 13.778 14.024 13.966 13.879 13.92 13.941 13.885 13.987 14.179 14.314 14.294 14.427 14.43 13.209 11.819 11.96 11.481 11.554 13.183 12.277 12.02 12.02 12.02 12.034 11.697 11.547 10.494 11.491 11.837 11.763 11.508 10.875 10.835 10.83 11.011 12.112 11.555 11.76 11.795 12.815 11.289 12.117 12.878 12.68 12.438 12.419 11.857 11.934 11.91 11.248 11.248 11.248 11.872 11.843 11.626 11.743 11.853 11.734 11.592 11.48 11.563 11.268 11.251 11.245 10.625 10.625 11.058 11.039 11.427 9.528 11.196 11.036 11.309 11.458 11.545 11.439 10.867 10.867 11.835 12.773 10.831 10.831 10.973 11.11 10.718 10.62 10.673 10.494 10.852 11.029 10.977 10.56 7.871 10.418 10.255 10.289 10.385 10.602 10.683 10.81 10.81 10.954 10.754 11.146 10.881 11.961 11.882 11.972 12.035 12.621 11.977 11.864 11.809 11.607 11.342 11.779 11.783 11.765 11.804 11.306 11.306 10.877 10.499 10.499 10.499 10.499 10.418 10.518 10.394 10.267 10.357 10.834 11.048 10.655 10.748 11.05 10.916 10.782 10.801 10.493 10.623 10.31 10.562 10.494 10.241 9.837 9.443 9.147 9.137 9.137 9.137 9.666 10.002 9.884 9.346 7.213 8.505 9.142 9.266 9.47 9.808 9.637 9.413 9.122 9.346 9.536 9.432 9.51 9.732 9.783 10.153 10.616 10.556 10.539 10.981 10.928 10.625 10.59 10.612 10.559 11.059 11.056 10.64 10.677 10.44 11.155 11.103 11.28 11.109 10.849 10.669 10.852 11.25 11.082 10.778 10.544 10.612 11.018 -9999 -9999 -9999 -9999 -9999 -9999 -9999 -9999 -9999 -9999 -9999 -9999 -9999 -9999 -9999 -9999 -9999 -9999 -9999 -9999 -9999 -9999 -9999 -9999 -9999 -9999 -9999 -9999 -9999 -9999 -9999 -9999 -9999 -9999 -9999 -9999 -9999 -9999 -9999 -9999 -9999 -9999 -9999 -9999 -9999 -9999 -9999 -9999 -9999 -9999 -9999 -9999 -9999 -9999 -9999 -9999 -9999 -9999 -9999 -9999 -9999 -9999 -9999 -9999 -9999 -9999 -9999 -9999 -9999 -9999 -9999 -9999 -9999 -9999 -9999 -9999 -9999 -9999 -9999 -9999 -9999 -9999 -9999 -9999 -9999 -9999 -9999 -9999 -9999 -9999 -9999 -9999 -9999 -9999 -9999 -9999 -9999 -9999 -9999 -9999 -9999 -9999 -9999 -9999 -9999 -9999
-9999 -9999 -9999 -9999 -9999 14.659 14.603 15.243 14.735 14.799 14.578 14.634 14.55 14.428 14.298 15.156 14.9 14.676 13.79 13.574 13.773 13.912 13.608 13.551 13.551 13.551 13.551 13.551 13.551 13.551 13.551 13.551 13.643 13.575 13.659 13.551 13.551 13.551 13.551 13.551 13.683 13.884 13.879 13.741 13.673 13.975 14.037 14.016 14.059 13.957 13.985 13.806 13.729 13.857 13.859 13.604 13.8 13.67 13.679 13.604 13.794 13.68 13.732 13.989 13.6 13.524 13.361 13.792 13.562 13.591 13.855 13.566 13.352 13.649 13.805 13.533 13.558 13.385 13.39 13.429 13.326 13.329 13.337 13.317 13.333 13.349 13.49 13.343 13.277 13.091 13.326 13.284 13.161 13.278 13.167 13.035 13.18 13.149 13.714 13.223 13.116 13.433 13.116 13.409 13.376 13.188 13.139 13.035 13.164 13.15 13.152 13.138 13.056 13.689 13.169 13.169 13.169 13.169 13.169 13.37 13.255 13.253 13.328 13.439 13.4 13.529 13.426 13.426 13.455 13.364 13.419 13.361 13.42 13.442 13.361 13.404 13.486 13.45 13.471 13.361 13.43 13.54 13.973 17.55 14.507 13.874 13.672 13.92 13.894 13.35 13.35 13.35 13.35 13.395 13.35 13.35 13.35 13.587 14.483 14.395 14.188 13.979 13.696 13.696 13.696 13.794 13.696 13.757 13.758 13.787 13.747 13.716 13.716 13.899 13.946 13.778 13.924 13.897 13.914 13.885 13.886 14.047 14.107 14.157 14.339 14.462 14.3 12.519 12.366 12.107 12.376 11.498 13.335 12.294 12.02 12.02 12.025 12.051 11.762 11.522 11.475 11.673 12.263 12.228 11.74 10.924 10.905 12.06 12.159 12.622 12.72 12.586 11.794 12.578 12.395 11.926 11.892 11.768 11.677 12.635 11.979 11.915 12.033 11.248 11.248 11.248 11.893 12.206 11.482 11.482 11.482 11.464 11.448 11.317 11.155 11.082 10.963 10.828 10.849 10.625 11.087 11.385 12.279 10.38 9.528 11.072 11.141 11.197 11.399 11.494 10.913 10.933 10.867 11.975 12.08 10.831 11.012 10.891 11.049 10.694 10.494 10.494 10.832 11.039 10.964 8.246 10.888 10.516 10.397 10.366 10.595 10.608 10.602 10.883 10.81 10.969 10.754 11.166 10.881 12.004 11.949 11.826 11.826 11.826 11.826 11.85 11.673 11.529 11.342 11.498 11.554 11.745 11.633 11.283 11.199 11.081 10.499 10.499 10.826 10.8 10.418 10.488 10.272 10.267 10.416 10.829 11.002 10.541 10.849 11.034 10.915 10.793 10.78 10.593 10.278 10.294 10.242 10.242 10.249 9.875 9.621 9.563 9.326 9.137 9.137 9.137 9.586 9.535 9.797 9.165 7.213 7.516 9.115 9.286 9.892 9.858 9.221 8.9 9.274 9.432 9.837 9.635 9.603 9.807 10.228 10.614 10.348 10.374 11.04 10.886 10.615 10.355 10.409 10.311 10.57 10.012 10.486 10.439 11.18 11.231 11.289 11.365 11.223 10.82 10.807 10.722 10.61 10.966 10.663 10.466 10.46 10.92 10.843 10.618 10.341 10.129 10.129 10.129 10.129 -9999 -9999 -9999 -9999 -9999 -9999 -9999 -9999 -9999 -9999 -9999 -9999 -9999 -9999 -9999 -9999 -9999 -9999 -9999 -9999 -9999 -9999 -9999 -9999 -9999 -9999 -9999 -9999 -9999 -9999 -9999 -9999 -9999 -9999 -9999 -9999 -9999 -9999 -9999 -9999 -9999 -9999 -9999 -9999 -9999 -9999 -9999 -9999 -9999 -9999 -9999 -9999 -9999 -9999 -9999 -9999 -9999 -9999 -9999 -9999 -9999 -9999 -9999 -9999 -9999 -9999 -9999 -9999 -9999 -9999 -9999 -9999 -9999 -9999 -9999 -9999 -9999 -9999 -9999 -9999 -9999 -9999 -9999 -9999 -9999 -9999 -9999 -9999 -9999 -9999 -9999 -9999 -9999 -9999 -9999 -9999 -9999 -9999 -9999
-9999 -9999 -9999 -9999 -9999 14.492 15.275 15.541 14.818 14.487 14.229 14.131 14.11 14.11 14.11 13.942 13.707 13.707 13.643 13.574 13.574 13.551 13.551 13.551 13.551 13.551 13.551 13.551 13.551 13.551 13.551 13.551 13.551 13.551 13.551 13.551 13.551 13.551 13.551 13.551 13.551 13.551 13.551 13.551 13.551 13.551 13.585 13.65 13.714 13.77 13.667 13.617 13.604 13.604 13.604 13.604 13.604 13.73 13.804 13.604 13.96 14.01 13.697 13.65 13.704 13.552 13.361 13.698 13.729 13.562 13.499 13.553 13.352 13.546 13.664 13.705 13.537 13.442 13.236 13.282 13.236 13.236 13.236 13.182 13.182 13.26 13.185 13.414 13.335 13.091 13.388 13.161 13.161 13.839 13.406 13.091 13.112 13.112 13.294 13.354 13.116 13.653 13.225 13.281 13.214 13.127 13.212 13.148 13.146 13.143 13.127 13.21 13.218 13.618 13.169 13.252 13.169 13.303 13.169 13.456 13.415 13.253 13.356 13.328 13.389 13.426 13.588 13.538 13.432 13.454 13.547 13.41 13.361 13.372 13.361 13.361 13.361 13.361 13.361 13.79 13.892 13.711 15.052 15.089 18.604 13.674 13.611 19.214 13.965 13.35 13.48 13.35 13.35 13.35 13.35 14.013 14.415 14.513 14.29 13.901 13.696 13.696 13.696 13.802 13.826 13.866 13.696 13.696 13.696 13.696 13.716 13.824 13.87 13.716 13.875 13.836 13.874 13.89 13.944 14.072 14.045 14.058 13.953 14.074 13.872 14.018 13.124 12.445 12.51 12.574 12.295 12.065 13.414 12.335 12.02 12.02 12.02 11.922 11.685 11.499 11.475 12.162 11.181 11.181 11.154 12.411 12.267 11.565 11.565 12.496 11.877 11.692 11.692 12.475 12.008 11.955 11.811 11.608 11.608 11.608 11.608 11.608 11.608 11.886 11.893 11.857 11.906 12.014 11.663 11.938 11.733 11.775 11.739 11.609 11.668 11.615 11.478 11.494 11.17 11.257 10.871 12.313 11.598 9.528 9.528 11.265 11.216 10.981 10.83 10.959 11.059 10.83 10.83 11.373 12.551 10.831 10.831 10.91 10.807 10.494 10.494 10.521 10.941 10.885 11.001 8.246 9.892 10.251 10.552 10.783 10.608 10.632 10.697 10.886 10.81 10.967 10.754 11.099 10.881 11.89 11.932 12.043 11.976 12.009 11.826 11.826 11.866 11.581 11.381 11.683 11.678 11.422 11.781 11.288 11.157 11.168 10.659 10.499 10.83 10.704 10.373 10.369 10.407 10.267 10.303 10.819 10.867 10.421 10.766 11.113 10.607 10.432 10.493 10.527 10.317 10.278 10.44 10.414 10.279 9.991 9.563 9.669 9.599 9.444 9.32 9.493 9.05 9.483 9.293 9.35 8.596 7.213 8.841 8.989 9.169 9.082 8.9 8.9 9.316 9.616 9.799 10.177 10.042 9.841 10.391 10.42 10.055 10.237 10.96 10.872 10.421 9.862 10.141 9.959 10.003 10.205 10.489 10.37 10.841 11.075 11.27 11.382 11.189 10.821 10.789 10.693 10.59 10.598 10.544 10.46 10.46 10.819 10.708 10.56 10.278 10.129 10.129 10.129 10.129 -9999 -9999 -9999 -9999 -9999 -9999 -9999 -9999 -9999 -9999 -9999 -9999 -9999 -9999 -9999 -9999 -9999 -9999 -9999 -9999 -9999 -9999 -9999 -9999 -9999 -9999 -9999 -9999 -9999 -9999 -9999 -9999 -9999 -9999 -9999 -9999 -9999 -9999 -9999 -9999 -9999 -9999 -9999 -9999 -9999 -9999 -9999 -9999 -9999 -9999 -9999 -9999 -9999 -9999 -9999 -9999 -9999 -9999 -9999 -9999 -9999 -9999 -9999 -9999 -9999 -9999 -9999 -9999 -9999 -9999 -9999 -9999 -9999 -9999 -9999 -9999 -9999 -9999 -9999 -9999 -9999 -9999 -9999 -9999 -9999 -9999 -9999 -9999 -9999 -9999 -9999 -9999 -9999 -9999 -9999 -9999 -9999 -9999 -9999
-9999 -9999 -9999 -9999 -9999 14.237 15.102 15.185 14.973 14.706 14.204 14.215 14.111 14.11 14.284 14.499 13.841 13.875 13.926 13.743 14.109 14.049 14.067 13.705 13.748 13.551 15.453 15.432 14.818 13.551 13.551 13.551 13.551 13.551 13.551 13.551 13.92 13.691 13.551 13.551 13.867 13.891 13.759 14.072 13.863 13.969 13.934 14.049 13.979 13.891 13.985 14.092 13.604 13.857 13.856 13.604 13.718 13.604 13.604 13.604 13.604 13.664 13.642 13.665 13.713 13.875 13.361 13.484 13.52 13.586 13.379 13.692 13.352 13.399 13.407 13.236 13.236 13.236 13.467 13.236 13.3 13.236 13.283 13.222 13.182 13.182 13.182 13.246 13.38 13.091 13.145 13.162 13.17 13.424 13.162 13.091 13.332 13.209 13.341 13.38 13.299 13.465 13.321 13.435 13.215 13.127 13.166 13.213 13.153 13.127 13.127 13.207 13.204 13.601 13.169 13.229 13.197 13.37 13.347 13.422 13.299 13.387 13.398 13.572 13.504 13.373 13.414 13.501 13.441 13.441 13.373 13.474 13.454 13.373 13.413 13.361 13.361 13.801 13.854 13.995 13.868 13.85 13.937 14.231 20.825 13.809 13.611 16.707 13.732 13.35 13.35 13.35 13.35 14.023 14.439 14.734 14.471 13.807 13.696 13.696 13.792 14.052 14.036 13.864 13.847 13.696 13.696 13.696 13.696 13.741 13.864 13.713 13.761 13.741 13.73 13.813 13.896 13.931 14.069 14.137 13.772 13.82 13.93 13.475 13.945 13.1 12.469 12.733 12.7 12.345 12.141 12.539 13.462 12.433 12.02 12.02 12.081 11.951 11.756 11.515 11.475 12.011 11.189 11.247 11.154 11.748 11.691 11.736 11.565 12.612 11.862 11.745 11.818 11.692 11.608 11.608 11.608 11.608 12.049 12.339 12.254 12.094 12.092 12.24 12.283 11.611 12.031 12.325 12.234 11.911 11.733 11.733 11.862 11.854 11.756 11.67 11.632 11.481 11.61 11.49 12.159 10.871 11.452 9.777 9.528 11.197 10.83 11.04 10.83 10.83 10.83 10.83 10.83 10.845 12.001 12.183 10.831 10.831 10.892 10.494 10.494 10.534 10.876 10.788 8.246 8.246 10.459 10.364 10.543 10.641 11.046 10.978 11.007 10.929 10.841 11.057 10.754 11.228 10.881 11.739 11.797 12.038 12.103 12.211 11.826 12.044 11.581 11.775 11.381 11.752 11.517 11.373 11.557 11.476 11.213 11.158 10.911 10.64 10.544 10.373 10.561 10.469 10.408 10.267 10.417 10.877 10.776 10.443 10.418 10.572 10.592 10.432 10.449 10.504 10.411 10.283 10.479 10.478 10.236 9.942 9.708 9.769 9.646 9.608 9.707 9.37 9.172 9.05 8.968 8.874 8.776 7.213 7.213 8.473 8.473 8.9 9.062 9.257 9.067 9.56 9.587 9.744 9.814 9.606 9.686 9.904 9.813 9.801 10.019 10.227 9.862 10.113 10.196 9.959 10.042 10.024 10.32 10.225 10.739 10.754 11.189 11.393 11.198 10.702 10.682 10.704 10.609 10.59 10.517 10.46 10.46 10.796 10.6 10.528 10.249 10.129 10.129 10.129 10.129 -9999 -9999 -9999 -9999 -9999 -9999 -9999 -9999 -9999 -9999 -9999 -9999 -9999 -9999 -9999 -9999 -9999 -9999 -9999 -9999 -9999 -9999 -9999 -9999 -9999 -9999 -9999 -9999 -9999 -9999 -9999 -9999 -9999 -9999 -9999 -9999 -9999 -9999 -9999 -9999 -9999 -9999 -9999 -9999 -9999 -9999 -9999 -9999 -9999 -9999 -9999 -9999 -9999 -9999 -9999 -9999 -9999 -9999 -9999 -9999 -9999 -9999 -9999 -9999 -9999 -9999 -9999 -9999 -9999 -9999 -9999 -9999 -9999 -9999 -9999 -9999 -9999 -9999 -9999 -9999 -9999 -9999 -9999 -9999 -9999 -9999 -9999 -9999 -9999 -9999 -9999 -9999 -9999 -9999 -9999 -9999 -9999 -9999 -9999
-9999 -9999 -9999 -9999 14.332 14.28 15.181 14.864 14.975 14.678 14.267 14.337 14.286 14.13 14.312 14.133 14.021 13.921 14.023 13.759 13.915 14.031 14.027 14.048 13.755 13.551 19.476 19.902 19.429 13.563 13.551 13.551 13.551 13.551 13.551 13.59 13.551 13.551 13.638 13.551 13.86 13.779 13.788 13.904 13.981 14.149 13.903 13.903 13.909 13.932 13.95 13.881 13.752 13.889 13.687 13.604 13.868 13.789 13.794 13.604 13.732 13.604 13.361 13.361 13.361 13.361 13.361 13.361 13.361 13.361 13.352 13.352 13.352 13.352 13.352 13.483 13.508 13.369 13.452 13.636 13.5 13.236 13.47 13.355 13.464 13.466 13.317 13.182 13.091 13.091 13.091 13.091 13.091 13.091 13.091 13.091 13.091 13.127 13.127 13.127 13.127 13.127 13.127 13.135 13.127 13.127 13.127 13.127 13.545 13.127 13.127 13.204 13.204 13.704 13.181 13.218 13.212 13.438 13.333 13.459 13.599 13.246 13.324 13.342 13.487 13.796 13.373 13.373 13.373 13.373 13.373 13.373 13.373 13.373 13.414 13.678 13.776 14.067 13.961 13.896 13.903 13.869 13.97 14.173 15.72 13.715 13.852 13.611 13.452 13.46 13.35 14.135 14.612 14.833 14.63 13.787 13.787 13.813 14.115 14.095 13.889 13.754 13.696 13.696 13.696 13.81 13.696 14.011 13.9 13.724 13.814 13.713 13.713 13.758 13.836 13.849 13.951 13.864 13.74 13.721 14.036 13.41 13.608 13.806 13.128 12.665 12.611 12.506 12.29 12.29 12.141 12.535 13.507 12.492 12.022 12.02 12.143 12.014 11.866 11.643 11.51 12.009 11.248 11.154 11.663 11.54 11.794 12.487 12.388 11.565 11.565 11.649 12.179 12.124 12.227 12.13 11.935 12.185 12.068 12.887 12.86 12.002 12.572 11.611 11.611 11.611 12.042 12.486 12.576 12.17 11.733 11.735 11.991 11.95 11.881 11.707 11.589 11.578 11.575 11.834 11.707 11.282 11.681 11.319 9.528 11.423 11.011 10.83 10.83 10.83 10.898 10.928 10.83 10.83 11.398 12.585 11.71 10.849 11.23 10.552 10.532 10.638 9.63 8.246 8.246 10.78 11.062 10.599 10.719 10.81 10.865 11.027 11.069 10.96 10.988 11.19 10.809 11.266 10.881 11.664 11.716 12.126 12.204 12.254 11.952 11.96 11.902 11.769 11.472 11.83 11.574 11.373 11.495 11.385 11.425 11.263 11.181 10.868 10.609 10.559 10.645 10.67 10.483 10.267 10.505 10.795 10.737 10.416 10.416 10.529 10.57 10.492 10.409 10.312 10.212 10.395 10.494 10.396 10.119 9.9 9.866 9.593 9.586 9.586 9.707 9.241 8.994 8.874 8.874 8.88 9.22 7.213 7.213 9.23 9.217 9.312 9.142 9.001 9.001 9.004 9.108 9.108 9.108 9.108 9.197 9.23 9.253 9.382 9.632 9.814 9.891 9.716 10.011 9.897 9.853 10.047 10.206 10.003 10.669 10.567 11.154 10.982 10.82 10.85 10.787 10.682 10.559 10.58 10.46 10.532 10.46 10.715 10.548 10.529 10.3 10.129 10.129 10.129 -9999 -9999 -9999 -9999 -9999 -9999 -9999 -9999 -9999 -9999 -9999 -9999 -9999 -9999 -9999 -9999 -9999 -9999 -9999 -9999 -9999 -9999 -9999 -9999 -9999 -9999 -9999 -9999 -9999 -9999 -9999 -9999 -9999 -9999 -9999 -9999 -9999 -9999 -9999 -9999 -9999 -9999 -9999 -9999 -9999 -9999 -9999 -9999 -9999 -9999 -9999 -9999 -9999 -9999 -9999 -9999 -9999 -9999 -9999 -9999 -9999 -9999 -9999 -9999 -9999 -9999 -9999 -9999 -9999 -9999 -9999 -9999 -9999 -9999 -9999 -9999 -9999 -9999 -9999 -9999 -9999 -9999 -9999 -9999 -9999 -9999 -9999 -9999 -9999 -9999 -9999 -9999 -9999 -9999 -9999 -9999 -9999 -9999 -9999 -9999
-9999 -9999 -9999 -9999 14.395 14.737 14.832 14.289 14.728 14.643 14.241 14.267 14.017 13.905 14.137 13.833 13.833 14.119 13.902 13.759 13.905 14.035 14.113 14.116 14.022 13.551 19.086 19.523 18.998 13.617 13.971 13.563 13.708 13.593 13.551 13.618 13.711 13.727 13.768 13.808 13.743 13.861 13.779 13.877 13.974 14.093 13.908 13.903 13.903 13.903 14.052 13.807 13.752 13.945 13.812 13.942 13.729 13.69 13.687 13.604 13.664 13.71 13.62 13.691 13.406 13.601 13.361 13.609 13.664 13.579 13.55 13.608 13.352 13.515 13.528 13.453 13.538 13.488 13.532 13.591 13.571 13.445 13.398 13.443 13.5 13.344 13.272 13.574 13.548 13.501 13.437 13.366 13.339 13.351 13.425 13.326 13.387 13.327 13.347 13.336 13.153 13.733 13.683 13.127 13.432 13.319 13.244 13.127 13.127 13.127 13.127 13.243 13.204 13.749 13.449 13.246 13.295 13.449 13.333 13.611 13.268 13.246 13.392 13.34 13.413 13.694 13.44 13.376 13.387 13.381 13.39 13.477 13.713 13.373 13.483 13.75 13.839 14.156 14.111 13.788 13.801 13.724 13.858 14.065 13.862 13.631 13.611 13.666 13.68 14.213 14.697 14.783 14.697 14.088 13.925 14.073 13.993 13.787 13.673 13.673 13.782 13.696 13.723 13.803 13.876 14.04 13.841 13.696 13.653 13.735 13.713 13.761 13.74 13.779 13.881 13.807 13.775 13.656 13.8 13.452 13.519 13.725 13.208 12.46 12.664 12.439 12.488 12.387 12.473 12.441 12.442 12.64 13.531 12.567 12.277 12.094 12.193 12.046 11.879 11.736 11.726 11.986 11.188 11.793 11.462 11.462 12.932 11.565 11.565 12.717 11.565 11.565 11.765 11.738 11.738 12.162 11.914 11.667 12.291 12.791 11.734 11.786 12.271 11.611 11.611 11.611 12.048 12.493 12.686 12.36 11.733 12.117 12.054 12.017 11.879 11.61 11.607 11.669 11.388 12.14 11.253 11.632 11.62 11.195 9.528 9.528 11.057 11.204 11.103 10.925 10.993 11.005 10.83 10.83 11.016 11.96 11.931 10.849 10.912 10.967 10.837 10.202 8.246 8.246 11.211 11.397 11.328 10.84 11.104 10.957 11.032 11.053 10.96 11.103 11.157 11.313 11.121 11.482 10.881 11.676 11.718 11.922 12.162 12.235 12.092 11.956 11.998 11.853 11.312 11.763 11.502 11.373 11.438 11.444 11.355 11.392 11.181 10.862 10.619 10.48 10.472 10.456 10.324 10.267 10.49 10.839 10.76 10.416 10.429 10.541 10.244 10.355 10.526 10.212 10.212 10.408 10.245 10.04 9.9 10.175 9.935 9.586 9.586 9.586 9.586 9.743 9.563 9.755 9.552 9.26 8.998 8.425 7.213 9.778 9.667 9.798 9.001 9.06 9.267 9.158 9.26 9.185 9.44 9.37 9.598 9.654 9.633 9.56 9.433 9.503 9.494 9.523 9.886 9.799 9.713 9.673 10.134 9.967 10.393 10.47 10.319 10.411 10.573 10.45 10.413 10.642 10.739 10.559 10.46 10.46 10.46 10.786 10.471 10.51 10.249 10.129 10.129 10.129 -9999 -9999 -9999 -9999 -9999 -9999 -9999 -9999 -9999 -9999 -9999 -9999 -9999 -9999 -9999 -9999 -9999 -9999 -9999 -9999 -9999 -9999 -9999 -9999 -9999 -9999 -9999 -9999 -9999 -9999 -9999 -9999 -9999 -9999 -9999 -9999 -9999 -9999 -9999 -9999 -9999 -9999 -9999 -9999 -9999 -9999 -9999 -9999 -9999 -9999 -9999 -9999 -9999 -9999 -9999 -9999 -9999 -9999 -9999 -9999 -9999 -9999 -9999 -9999 -9999 -9999 -9999 -9999 -9999 -9999 -9999 -9999 -9999 -9999 -9999 -9999 -9999 -9999 -9999 -9999 -9999 -9999 -9999 -9999 -9999 -9999 -9999 -9999 -9999 -9999 -9999 -9999 -9999 -9999 -9999 -9999 -9999 -9999 -9999 -9999
-9999 -9999 -9999 14.014 14.014 14.986 14.87 14.289 14.599 14.393 14.074 14.027 13.833 13.833 13.975 13.833 13.833 13.947 13.911 13.759 13.925 13.905 13.971 13.847 13.826 13.551 18.508 18.948 18.424 13.803 13.712 13.675 13.6 13.662 13.551 13.676 13.749 13.874 13.769 13.901 13.912 13.828 13.87 13.869 13.9 14.092 13.954 13.929 13.903 13.903 13.928 14.18 13.842 13.76 13.904 13.729 13.769 13.687 13.799 13.604 13.647 13.62 13.679 13.608 13.833 13.629 13.435 13.6 13.62 13.695 13.605 13.674 13.352 13.639 13.612 13.453 13.514 13.469 13.431 13.431 13.476 13.392 13.392 13.516 13.453 13.39 13.601 13.479 13.499 13.61 13.551 13.494 13.339 13.503 13.371 13.314 13.401 13.287 13.287 13.287 13.332 13.835 13.578 13.282 13.304 13.181 13.156 13.127 13.127 13.127 13.127 13.325 13.204 13.767 13.326 13.319 13.246 13.444 13.333 13.519 13.286 13.246 13.411 13.36 13.34 13.651 13.724 13.467 13.431 13.47 13.414 13.577 13.396 13.395 13.436 13.387 13.637 14.093 14.129 13.939 13.788 13.742 13.644 13.644 13.646 13.69 13.645 14.427 14.829 14.77 14.751 14.423 14.282 14.021 13.822 13.82 13.729 13.673 13.798 13.673 13.83 13.817 13.707 13.735 13.571 13.918 13.695 13.681 13.653 13.726 13.744 13.713 13.726 13.772 13.825 13.681 13.722 13.365 13.673 13.696 13.097 13.075 12.637 12.793 12.46 12.439 12.528 12.45 12.387 12.435 12.41 12.435 13.531 12.681 12.481 12.342 12.248 12.646 11.959 11.97 11.857 12.028 12.13 11.873 11.947 13.045 11.759 11.789 11.831 12.128 11.618 11.644 12.427 11.738 11.784 11.787 11.768 11.667 12.246 12.642 11.6 11.73 12.032 11.611 11.611 11.611 12.062 12.548 12.699 12.245 12.087 12.256 12.2 12.126 11.953 11.703 11.542 11.512 12.236 11.388 11.253 11.253 11.211 10.908 10.47 10.11 9.528 9.528 11.08 11.111 11.087 11.026 10.83 10.83 10.937 11.708 12.118 10.849 10.935 11.024 11.081 8.246 8.246 11.116 11.472 11.564 11.49 11.084 11.139 11.205 11.348 11.125 10.995 11.241 11.103 11.233 11.121 11.55 10.881 11.682 11.727 12.12 12.159 12.166 12.145 11.893 11.937 11.671 11.312 11.631 11.548 11.373 11.57 11.796 11.52 11.555 11.19 11.179 10.77 11.08 10.513 10.54 10.306 10.267 10.591 10.817 10.786 10.362 10.62 10.412 10.244 10.306 10.212 10.212 10.356 10.291 9.951 9.951 9.977 9.928 9.924 9.683 9.704 9.586 9.586 9.879 9.769 9.759 9.615 9.572 9.237 9.092 7.159 7.159 9.68 9.856 9.014 9.001 8.984 9.391 9.597 10.018 9.342 9.582 9.878 9.84 9.678 9.221 9.221 9.314 9.874 9.364 9.633 9.701 9.722 9.673 10.102 9.967 10.172 10.073 10.161 10.393 10.4 10.329 10.376 10.55 10.546 10.507 10.46 10.474 10.46 10.692 10.435 10.35 10.164 10.129 10.129 10.129 -9999 -9999 -9999 -9999 -9999 -9999 -9999 -9999 -9999 -9999 -9999 -9999 -9999 -9999 -9999 -9999 -9999 -9999 -9999 -9999 -9999 -9999 -9999 -9999 -9999 -9999 -9999 -9999 -9999 -9999 -9999 -9999 -9999 -9999 -9999 -9999 -9999 -9999 -9999 -9999 -9999 -9999 -9999 -9999 -9999 -9999 -9999 -9999 -9999 -9999 -9999 -9999 -9999 -9999 -9999 -9999 -9999 -9999 -9999 -9999 -9999 -9999 -9999 -9999 -9999 -9999 -9999 -9999 -9999 -9999 -9999 -9999 -9999 -9999 -9999 -9999 -9999 -9999 -9999 -9999 -9999 -9999 -9999 -9999 -9999 -9999 -9999 -9999 -9999 -9999 -9999 -9999 -9999 -9999 -9999 -9999 -9999 -9999 -9999 -9999
-9999 -9999 -9999 14.014 14.014 14.614 15.084 14.182 14.254 14.036 13.894 14.199 14.2 14.14 13.833 14.188 13.833 13.94 13.833 13.759 13.918 14.042 13.994 14.042 14.143 13.623 17.801 18.256 17.688 13.792 13.911 13.728 13.64 13.551 13.551 13.799 13.676 13.892 13.854 13.9 13.962 13.876 13.981 13.989 13.953 13.914 13.941 13.903 13.966 13.958 13.942 13.981 13.76 13.957 13.749 13.895 13.745 13.753 13.953 13.604 13.719 13.623 13.74 13.704 13.618 13.639 13.435 13.806 13.639 13.588 13.776 13.69 13.352 13.457 13.453 13.475 13.656 13.431 13.609 13.612 13.451 13.392 13.583 13.392 13.392 13.477 13.542 13.543 13.486 13.5 13.633 13.339 13.339 13.339 13.357 13.314 13.314 13.383 13.37 13.337 13.287 13.647 13.423 13.37 13.281 13.204 13.127 13.127 13.127 13.127 13.177 13.419 13.275 13.763 13.316 13.246 13.345 13.246 13.246 13.246 13.465 13.246 13.338 13.396 13.522 13.558 13.46 13.433 13.424 13.58 13.501 13.384 13.437 13.323 13.644 13.246 13.474 13.973 14.104 13.896 13.817 13.644 13.644 13.69 13.644 14.641 14.883 14.817 14.831 14.614 14.519 14.089 13.809 13.836 13.734 13.807 13.673 13.978 13.963 13.702 13.673 13.673 13.673 13.811 13.682 13.571 13.568 13.681 13.653 13.654 13.665 13.696 13.733 13.716 13.742 13.31 13.735 13.662 13.197 13.169 12.627 12.788 12.646 12.648 12.491 12.439 12.478 12.527 12.475 12.387 12.465 12.387 13.513 12.715 12.545 12.443 12.347 12.64 12.076 12.1 12.039 11.857 12.05 11.873 11.914 13.108 11.825 11.813 11.8 11.889 11.579 11.579 11.579 11.579 11.777 11.789 11.58 11.579 12.233 12.652 11.604 11.6 12.211 11.611 11.611 11.611 12.013 12.493 12.748 12.374 11.967 11.903 12.195 12.027 11.644 12.07 11.642 12.266 11.388 12.372 11.545 11.43 11.134 10.312 10.238 10.317 10.819 9.528 9.528 10.931 10.7 10.702 10.878 11.057 11.314 11.5 11.83 11.461 11.148 11.047 8.457 8.246 10.785 11.184 11.297 11.463 11.619 11.319 11.442 11.408 11.269 11.276 11.212 11.338 11.12 11.294 11.274 11.412 10.881 11.669 11.735 12.075 12.213 12.188 11.84 11.84 11.671 11.691 11.237 11.737 11.718 11.373 11.548 11.714 11.502 11.57 11.287 11.558 11.063 10.978 10.695 10.524 10.267 10.267 10.495 10.825 10.636 10.267 10.267 10.402 10.345 10.212 10.212 10.212 10.212 10.212 10.202 10.339 9.969 9.861 9.791 9.729 9.766 9.628 9.626 9.91 9.794 9.647 9.767 9.762 9.727 9.434 9.384 7.159 7.159 7.252 8.709 9.058 8.984 9.233 9.303 9.224 9.514 9.689 9.85 9.882 9.472 9.243 9.221 9.247 9.199 9.248 9.482 9.546 9.62 9.486 10.035 9.842 9.75 9.917 10.031 10.1 10.19 10.178 10.23 10.45 10.457 10.822 10.5 10.46 10.542 10.633 10.431 10.201 10.129 10.129 10.129 10.129 -9999 -9999 -9999 -9999 -9999 -9999 -9999 -9999 -9999 -9999 -9999 -9999 -9999 -9999 -9999 -9999 -9999 -9999 -9999 -9999 -9999 -9999 -9999 -9999 -9999 -9999 -9999 -9999 -9999 -9999 -9999 -9999 -9999 -9999 -9999 -9999 -9999 -9999 -9999 -9999 -9999 -9999 -9999 -9999 -9999 -9999 -9999 -9999 -9999 -9999 -9999 -9999 -9999 -9999 -9999 -9999 -9999 -9999 -9999 -9999 -9999 -9999 -9999 -9999 -9999 -9999 -9999 -9999 -9999 -9999 -9999 -9999 -9999 -9999 -9999 -9999 -9999 -9999 -9999 -9999 -9999 -9999 -9999 -9999 -9999 -9999 -9999 -9999 -9999 -9999 -9999 -9999 -9999 -9999 -9999 -9999 -9999 -9999 -9999 -9999
-9999 -9999 -9999 14.014 14.521 14.373 14.67 14.182 14.309 15.767 13.894 14.203 13.852 13.833 13.848 13.9 13.833 13.833 13.841 13.759 13.816 13.946 14.146 13.893 14.278 13.675 17.065 17.512 16.931 13.792 13.862 13.801 13.919 13.873 13.796 13.791 13.726 13.878 13.887 13.921 13.881 14.17 13.99 14.064 13.914 14.047 14.05 13.903 14.024 13.922 13.964 14.05 13.98 14.013 13.845 13.896 13.758 13.799 13.827 13.837 13.696 13.765 13.818 13.761 13.689 13.678 13.435 13.672 13.563 13.444 13.652 13.623 13.352 13.657 13.568 13.604 13.584 13.523 13.431 13.431 13.392 13.425 13.397 13.45 13.472 13.483 13.43 13.43 13.468 13.501 13.745 13.339 13.435 13.339 13.407 13.615 13.481 13.684 13.292 13.377 13.31 13.292 13.416 13.438 13.372 13.292 13.273 13.127 13.127 13.127 13.175 13.393 13.275 13.763 13.246 13.246 13.329 13.521 13.268 13.246 13.246 13.246 13.586 13.611 13.592 13.445 13.428 13.466 13.304 13.486 13.467 13.427 13.332 13.395 13.246 13.246 13.466 13.563 13.777 13.602 13.644 13.644 13.96 14.68 14.965 14.895 14.857 14.278 14.033 13.902 14.016 13.825 13.673 13.673 13.847 13.83 13.673 13.684 13.746 13.723 13.802 13.754 13.724 13.673 13.524 13.57 13.539 13.63 13.698 13.675 13.736 13.788 13.734 13.5 13.695 13.671 13.31 13.18 13.085 12.627 12.627 12.627 12.641 12.65 12.68 12.439 12.46 12.504 12.387 12.596 12.387 12.669 13.466 12.79 12.635 12.518 12.43 12.729 12.14 12.142 12.098 11.894 12.067 11.873 12.135 13.008 11.579 11.76 11.643 11.77 11.579 11.579 11.579 11.579 11.706 11.686 11.579 11.579 12.224 12.263 11.579 11.593 12.033 11.611 11.611 11.611 12.074 12.427 12.631 12.448 12.354 12.024 11.806 12.119 11.727 11.642 12.121 11.388 11.395 12.693 11.616 11.353 11.106 10.651 10.238 10.28 10.798 10.824 9.528 9.528 9.552 10.173 9.528 9.744 10.305 11.528 10.493 9.528 9.528 8.246 8.246 10.598 10.875 11.028 11.226 11.493 11.664 11.334 11.543 11.513 11.412 11.475 11.785 11.335 11.171 11.311 11.274 11.444 10.881 12.081 11.893 12.117 12.235 12.198 11.922 11.856 11.81 11.717 11.237 11.704 11.701 11.373 11.552 11.658 11.38 11.554 11.302 11.237 11.212 10.744 10.585 10.267 10.343 10.267 10.267 10.668 10.267 10.267 10.267 10.362 10.22 10.668 10.212 10.212 10.212 10.285 10.342 10.392 9.949 9.912 9.845 9.946 9.929 9.728 9.734 9.932 9.898 9.802 9.886 9.727 9.748 9.394 9.114 9.02 9.115 7.159 7.159 7.159 7.159 8.71 9.044 9.485 9.246 9.673 9.754 9.746 9.441 9.222 9.268 9.221 9.353 9.194 9.458 9.596 9.579 9.459 9.44 9.44 9.687 9.746 9.805 10.009 10.09 9.932 10.134 10.209 10.464 10.548 10.54 10.515 10.46 10.331 10.129 10.129 10.129 10.129 10.129 11.677 -9999 -9999 -9999 -9999 -9999 -9999 -9999 -9999 -9999 -9999 -9999 -9999 -9999 -9999 -9999 -9999 -9999 -9999 -9999 -9999 -9999 -9999 -9999 -9999 -9999 -9999 -9999 -9999 -9999 -9999 -9999 -9999 -9999 -9999 -9999 -9999 -9999 -9999 -9999 -9999 -9999 -9999 -9999 -9999 -9999 -9999 -9999 -9999 -9999 -9999 -9999 -9999 -9999 -9999 -9999 -9999 -9999 -9999 -9999 -9999 -9999 -9999 -9999 -9999 -9999 -9999 -9999 -9999 -9999 -9999 -9999 -9999 -9999 -9999 -9999 -9999 -9999 -9999 -9999 -9999 -9999 -9999 -9999 -9999 -9999 -9999 -9999 -9999 -9999 -9999 -9999 -9999 -9999 -9999 -9999 -9999 -9999 -9999 -9999 -9999
-9999 -9999 14.219 14.014 14.891 15.172 14.626 14.182 14.523 14.842 13.833 14.088 13.833 13.833 14.219 14.103 13.859 13.991 13.866 13.759 13.924 13.998 14.195 13.954 13.893 13.675 16.305 16.756 16.192 13.92 13.903 13.814 13.955 13.868 13.914 13.877 14.149 14.261 13.921 13.972 13.881 14.038 14.049 14.061 13.914 13.943 14.034 13.881 13.91 13.876 13.876 13.896 13.846 13.846 13.987 13.83 13.835 13.856 13.813 13.696 13.853 13.696 13.708 13.685 13.827 13.685 13.435 13.517 13.646 13.362 13.352 13.352 13.352 13.377 13.377 13.582 13.508 13.536 13.464 13.461 13.392 13.392 13.503 13.397 13.523 13.499 13.43 13.43 13.43 13.43 13.43 13.339 13.452 13.405 13.347 13.339 13.347 13.628 13.292 13.445 13.292 13.292 13.497 13.504 13.302 13.261 13.215 13.236 13.265 13.191 13.219 13.432 13.275 13.746 13.246 13.246 13.246 13.246 13.246 13.246 13.246 13.246 13.246 13.246 13.246 13.246 13.246 13.246 13.246 13.246 13.246 13.246 13.246 13.246 13.246 13.262 13.648 13.466 13.602 13.602 14.231 14.568 14.937 15.1 14.764 14.266 14.179 14.183 14.199 14.152 13.902 14.064 14.16 13.915 13.673 13.673 13.673 13.673 13.673 13.673 14.023 13.891 13.618 13.617 13.524 13.534 13.7 13.615 13.7 13.738 13.728 13.582 13.733 13.732 13.401 13.183 12.98 12.765 12.627 12.942 12.627 12.627 12.651 12.575 12.802 12.472 12.439 12.389 12.511 12.677 12.387 12.398 13.349 12.812 12.656 12.532 12.563 12.579 12.266 12.245 12.211 11.99 12.046 12.086 12.275 12.837 11.579 11.579 11.579 11.68 11.579 11.813 11.777 11.579 11.639 11.579 11.579 11.579 11.946 12.081 11.579 11.579 11.963 12.357 11.611 11.611 12.075 11.978 12.328 12.209 12.367 12.303 12.12 11.63 11.842 11.873 11.771 11.388 11.419 12.57 11.964 11.466 11.371 10.762 10.28 10.248 10.628 10.864 10.645 10.346 9.528 9.528 9.528 9.528 9.528 9.528 9.528 9.528 9.624 11.073 11.157 10.714 10.704 11.14 11.361 11.435 11.742 11.476 11.512 11.481 11.645 12.034 12.292 11.296 11.297 11.357 11.449 11.403 10.881 12.093 11.859 12.061 12.144 12.145 12.111 11.914 11.868 11.663 11.237 11.869 11.764 11.373 11.417 11.443 11.314 11.378 11.253 11.147 10.63 10.585 10.783 10.267 10.267 10.521 10.542 10.267 10.495 10.464 10.429 10.416 10.414 10.445 10.212 10.212 10.256 10.492 10.684 10.706 10.018 10.048 10.008 9.927 9.944 9.927 9.999 10.023 9.937 9.901 9.854 9.746 9.851 9.636 9.524 9.793 9.412 9.279 9.06 9.163 8.318 7.159 8.159 9.409 9.203 9.547 9.703 9.563 9.397 9.083 9.132 9.109 9.121 9.218 9.732 9.432 9.538 9.671 9.454 9.44 9.616 9.682 9.772 9.963 9.986 9.909 10.106 10.239 10.433 10.699 10.529 10.565 10.343 10.18 10.129 10.129 10.129 11.573 12.02 11.843 -9999 -9999 -9999 -9999 -9999 -9999 -9999 -9999 -9999 -9999 -9999 -9999 -9999 -9999 -9999 -9999 -9999 -9999 -9999 -9999 -9999 -9999 -9999 -9999 -9999 -9999 -9999 -9999 -9999 -9999 -9999 -9999 -9999 -9999 -9999 -9999 -9999 -9999 -9999 -9999 -9999 -9999 -9999 -9999 -9999 -9999 -9999 -9999 -9999 -9999 -9999 -9999 -9999 -9999 -9999 -9999 -9999 -9999 -9999 -9999 -9999 -9999 -9999 -9999 -9999 -9999 -9999 -9999 -9999 -9999 -9999 -9999 -9999 -9999 -9999 -9999 -9999 -9999 -9999 -9999 -9999 -9999 -9999 -9999 -9999 -9999 -9999 -9999 -9999 -9999 -9999 -9999 -9999 -9999 -9999 -9999 -9999 -9999 -9999 -9999
-9999 -9999 14.2 14.485 14.06 15.735 14.508 14.182 14.482 14.063 13.833 13.833 13.977 14.359 14.388 14.199 13.914 13.917 13.931 13.782 13.967 14.123 14.019 14.283 14.138 13.675 15.641 16.093 15.664 13.98 13.864 13.911 13.93 14.082 13.95 13.968 13.897 13.907 14.23 14.054 14.236 14.295 14.226 14.408 14.311 14.025 13.972 14.123 13.881 14.173 13.891 13.876 13.885 14.084 14.003 14.03 13.939 13.813 13.816 13.943 13.807 13.89 14.002 13.72 13.685 13.743 13.435 13.676 13.623 13.691 13.747 13.563 13.537 13.665 13.69 13.508 13.563 13.558 13.461 13.469 13.575 13.392 13.4 13.571 13.522 13.445 13.43 13.43 13.43 13.43 13.457 13.391 13.429 13.368 13.301 13.54 13.377 13.373 13.292 13.365 13.292 13.292 13.57 13.457 13.35 13.35 13.195 13.195 13.201 13.195 13.336 13.433 13.276 13.752 13.447 13.277 13.331 13.253 13.246 13.246 13.246 13.246 13.246 13.28 13.573 13.415 13.379 13.416 13.474 13.356 13.309 13.543 13.457 13.283 13.338 13.246 13.525 13.466 14.147 14.647 14.933 14.874 14.612 14.495 14.36 14.26 14.077 14.26 14.056 14.028 13.882 13.816 13.673 13.673 13.673 13.688 13.673 13.673 13.719 13.984 13.942 13.658 13.471 13.478 13.627 13.524 13.622 13.648 13.693 13.679 13.761 13.515 13.441 13.272 13.001 12.98 13.424 13.393 13.216 13.042 12.627 12.682 12.733 12.559 12.616 12.415 12.415 12.601 12.435 12.459 12.439 12.443 13.267 12.797 12.673 12.511 12.583 12.741 12.329 12.236 12.124 11.819 11.756 11.812 11.914 12.777 11.579 11.579 11.579 11.58 11.579 11.755 11.828 11.579 11.58 11.825 11.579 11.579 11.708 12.074 11.579 11.665 11.834 11.611 11.611 11.611 12.038 11.938 11.668 12.123 12.251 12.414 12.338 12.123 11.63 12.112 11.512 11.407 11.539 11.856 11.715 11.703 11.32 10.825 10.267 10.287 10.533 10.919 10.68 10.738 10.152 10.798 10.451 10.308 10.838 11.417 12.654 13.606 12.088 11.082 11.166 10.927 11.103 11.115 11.356 11.498 11.642 11.81 11.732 11.797 11.701 11.972 12.229 11.292 11.377 11.311 11.481 11.383 10.881 11.69 11.747 12.024 12.058 11.68 11.578 11.612 11.714 11.581 11.237 11.79 11.514 11.354 11.314 11.314 11.314 11.499 11.334 10.84 11.025 10.938 11.045 10.402 10.392 10.538 10.415 10.267 10.414 10.334 10.441 10.542 10.365 10.321 10.24 10.299 10.219 10.095 10.058 10.058 10.214 10.187 9.988 9.929 9.954 9.927 10.02 10.032 10.005 10.042 9.859 9.767 9.909 9.695 9.754 9.802 9.787 9.843 9.089 8.318 8.426 10.191 7.159 7.159 9.047 9.361 9.493 9.43 9.278 8.976 9.007 9.114 9.083 9.16 9.129 9.151 9.305 9.305 9.465 9.44 9.533 9.603 9.826 9.763 9.791 9.888 10.006 10.22 10.315 10.529 10.571 10.553 10.362 10.129 10.129 10.943 12.087 12.072 11.476 9.712 -9999 -9999 -9999 -9999 -9999 -9999 -9999 -9999 -9999 -9999 -9999 -9999 -9999 -9999 -9999 -9999 -9999 -9999 -9999 -9999 -9999 -9999 -9999 -9999 -9999 -9999 -9999 -9999 -9999 -9999 -9999 -9999 -9999 -9999 -9999 -9999 -9999 -9999 -9999 -9999 -9999 -9999 -9999 -9999 -9999 -9999 -9999 -9999 -9999 -9999 -9999 -9999 -9999 -9999 -9999 -9999 -9999 -9999 -9999 -9999 -9999 -9999 -9999 -9999 -9999 -9999 -9999 -9999 -9999 -9999 -9999 -9999 -9999 -9999 -9999 -9999 -9999 -9999 -9999 -9999 -9999 -9999 -9999 -9999 -9999 -9999 -9999 -9999 -9999 -9999 -9999 -9999 -9999 -9999 -9999 -9999 -9999 -9999 -9999 -9999
-9999 14.014 14.014 14.58 14.085 16.144 14.175 14.377 13.833 13.833 13.833 13.869 13.833 14.122 14.175 14.192 14.244 14.149 14.165 14.027 14.083 13.98 14.096 14.059 14.09 13.675 15.196 15.599 15.527 13.924 14.007 13.864 13.94 14.094 14.082 13.964 14.016 14.041 13.93 13.971 14.221 14.364 14.138 14.391 14.293 14.049 13.938 13.88 14.163 14.078 13.919 13.98 13.88 14.003 13.898 13.964 13.817 13.813 13.833 13.705 13.765 13.73 13.865 13.738 13.691 13.805 13.572 13.677 13.826 13.725 13.747 13.729 13.537 13.704 13.669 13.552 13.59 13.59 13.501 13.569 13.533 13.399 13.446 13.4 13.419 13.643 13.513 13.7 13.735 13.736 13.58 13.395 13.302 13.292 13.292 13.292 13.292 13.292 13.292 13.292 13.292 13.292 13.292 13.437 13.268 13.241 13.195 13.195 13.195 13.195 13.195 13.414 13.328 13.702 13.246 13.246 13.246 13.246 13.246 13.444 13.459 13.383 13.58 13.678 13.709 13.74 13.65 13.433 13.363 13.485 13.353 13.42 13.428 13.522 13.698 13.246 14.268 14.599 14.869 14.739 14.588 14.366 14.419 14.266 14.09 14.113 14.077 14.159 14.006 13.904 13.673 13.673 13.714 13.786 13.673 13.673 13.673 13.754 13.819 13.829 13.488 13.471 13.527 13.46 13.572 13.592 13.593 13.811 13.864 13.332 13.184 13.156 13.112 13.001 13.41 13.236 14.252 13.782 14.404 13.119 12.627 12.627 12.627 12.716 12.5 12.635 12.415 12.415 12.415 12.545 12.595 12.439 13.219 12.876 12.628 12.488 12.489 12.594 12.219 12.242 12.156 11.829 11.756 11.879 11.89 12.817 11.579 11.579 11.579 11.579 11.579 11.579 11.579 11.579 11.579 11.579 11.579 11.579 11.831 11.914 11.585 11.579 11.987 11.611 11.611 11.611 12.115 11.975 12.17 11.668 11.996 12.201 12.355 12.035 12.193 11.63 11.854 11.854 11.733 11.862 11.799 11.32 11.322 10.901 10.289 10.267 10.393 10.798 10.829 10.561 10.158 10.705 10.313 10.877 10.868 10.794 11.217 14.656 14.752 10.763 11.386 11.687 11.409 11.385 11.606 11.673 11.797 11.913 11.593 11.66 11.781 11.955 12.175 11.29 11.344 11.29 11.37 11.29 11.532 11.628 11.645 11.452 11.745 11.682 11.578 11.58 11.656 11.404 11.237 11.27 11.605 11.314 11.314 11.314 11.314 11.314 11.222 11.389 11.424 11.109 10.742 10.664 10.641 10.615 10.495 10.225 10.364 10.313 10.18 10.278 10.17 10.163 10.183 10.342 10.328 10.122 10.12 10.152 10.083 10.09 10.085 10.067 9.959 9.984 9.973 10.021 10.124 10.095 9.874 9.942 9.946 9.737 9.822 9.691 9.367 9.367 9.089 9.041 8.43 8.543 9.578 7.159 7.159 8.68 9.302 9.272 9.13 8.721 8.861 8.96 8.962 9.087 9.09 9.153 9.337 9.336 9.421 9.51 9.572 9.533 9.575 9.693 9.762 9.803 9.803 10.06 10.276 10.386 10.49 10.47 9.471 10.651 12.124 12.3 11.914 9.815 9.809 9.721 -9999 -9999 -9999 -9999 -9999 -9999 -9999 -9999 -9999 -9999 -9999 -9999 -9999 -9999 -9999 -9999 -9999 -9999 -9999 -9999 -9999 -9999 -9999 -9999 -9999 -9999 -9999 -9999 -9999 -9999 -9999 -9999 -9999 -9999 -9999 -9999 -9999 -9999 -9999 -9999 -9999 -9999 -9999 -9999 -9999 -9999 -9999 -9999 -9999 -9999 -9999 -9999 -9999 -9999 -9999 -9999 -9999 -9999 -9999 -9999 -9999 -9999 -9999 -9999 -9999 -9999 -9999 -9999 -9999 -9999 -9999 -9999 -9999 -9999 -9999 -9999 -9999 -9999 -9999 -9999 -9999 -9999 -9999 -9999 -9999 -9999 -9999 -9999 -9999 -9999 -9999 -9999 -9999 -9999 -9999 -9999 -9999 -9999 -9999 -9999
-9999 14.014 14.04 14.543 13.951 14.011 13.994 13.833 13.833 13.833 13.833 13.914 13.918 14.136 14.068 14.114 14.313 14.152 14.288 14.027 14.168 14.214 14.29 14.246 14.181 13.675 14.856 15.287 14.837 13.924 13.976 14.052 14.066 14.017 14.02 14.06 14.129 14.042 14.046 14.085 14.048 14.004 13.999 13.999 14.177 14.014 13.93 13.88 14.034 14.059 13.928 13.88 14.009 13.982 13.908 13.898 14.08 14.121 14.242 13.822 13.705 13.705 13.7 13.691 13.709 13.887 13.572 13.619 13.711 13.645 13.645 13.772 13.537 13.774 13.701 14.018 13.585 13.605 13.517 13.516 13.507 13.435 13.713 13.568 13.469 13.54 13.434 13.523 13.557 13.457 13.468 13.382 13.422 13.424 13.387 13.472 13.323 13.358 13.354 13.292 13.359 13.394 13.292 13.468 13.682 13.759 13.215 13.195 13.348 13.195 13.195 13.373 13.498 13.675 13.412 13.246 13.246 13.246 13.246 13.578 13.566 13.383 13.866 13.76 13.95 13.988 13.323 13.507 13.43 13.419 13.353 13.358 13.45 13.55 14.333 14.633 14.735 14.657 14.534 14.327 14.363 14.213 14.222 14.161 14.089 14.07 14.03 13.837 13.673 13.673 13.875 13.693 13.803 13.673 13.673 13.673 13.784 13.81 13.795 13.613 13.578 13.531 13.533 13.527 13.318 13.783 14.002 13.297 13.297 13.421 13.43 13.466 15.031 15.755 14.046 13.694 13.381 13.501 13.908 14.104 12.627 12.688 12.769 12.621 12.683 12.415 12.548 12.531 12.415 12.462 12.439 12.61 13.231 12.726 12.582 12.392 12.377 12.578 12.301 12.185 12.106 11.867 11.756 11.954 11.846 12.674 11.579 11.579 11.579 11.579 11.579 11.588 11.579 11.901 11.579 11.579 11.579 11.579 11.579 11.579 11.579 11.579 12.272 11.611 11.611 11.611 12.131 11.942 12.149 11.929 11.668 11.886 12.041 12.207 11.607 11.879 11.788 11.812 11.545 11.529 11.787 11.69 11.378 10.289 10.749 11.364 11.211 10.993 10.862 10.764 10.474 10.347 10.313 10.61 10.794 10.862 10.794 15.408 15.805 10.763 11.154 11.501 11.192 11.401 11.515 11.787 11.88 11.456 11.368 11.546 11.615 11.74 12.07 11.29 11.398 11.29 11.358 11.29 11.684 11.638 11.559 11.29 11.787 11.297 11.297 11.64 11.386 11.298 11.227 11.457 11.343 11.314 11.546 11.486 11.314 11.469 11.409 11.399 11.36 11.036 10.68 10.353 10.613 10.581 10.365 10.138 10.4 10.242 10.129 10.202 10.219 10.238 10.142 10.224 10.359 10.154 10.196 10.317 10.286 10.009 10.181 10.043 9.959 9.959 9.959 9.959 9.959 9.96 9.874 9.909 9.912 9.82 9.721 9.552 9.483 9.503 9.581 9.659 9.679 8.835 8.682 8.556 7.918 7.159 8.243 8.813 8.876 8.634 8.806 8.944 8.945 9.05 9.074 9.075 9.137 9.329 9.415 9.466 9.553 9.533 9.533 9.712 9.748 9.735 10.011 10.172 10.226 10.44 9.471 9.471 12.12 12.439 12.137 10.227 9.679 9.67 9.704 9.712 -9999 -9999 -9999 -9999 -9999 -9999 -9999 -9999 -9999 -9999 -9999 -9999 -9999 -9999 -9999 -9999 -9999 -9999 -9999 -9999 -9999 -9999 -9999 -9999 -9999 -9999 -9999 -9999 -9999 -9999 -9999 -9999 -9999 -9999 -9999 -9999 -9999 -9999 -9999 -9999 -9999 -9999 -9999 -9999 -9999 -9999 -9999 -9999 -9999 -9999 -9999 -9999 -9999 -9999 -9999 -9999 -9999 -9999 -9999 -9999 -9999 -9999 -9999 -9999 -9999 -9999 -9999 -9999 -9999 -9999 -9999 -9999 -9999 -9999 -9999 -9999 -9999 -9999 -9999 -9999 -9999 -9999 -9999 -9999 -9999 -9999 -9999 -9999 -9999 -9999 -9999 -9999 -9999 -9999 -9999 -9999 -9999 -9999 -9999 -9999
14.014 14.095 14.753 14.158 13.951 14.103 13.914 13.833 14.185 13.833 13.833 13.833 13.911 13.931 14.322 14.043 14.322 14.429 14.481 14.027 14.277 14.483 14.353 14.45 14.211 13.774 14.782 15.177 16.534 14.229 14.114 13.976 14.021 14.103 14.158 14.218 14.149 14.074 14.241 14.222 14.185 14.22 13.999 13.999 13.999 13.999 13.937 13.923 13.88 13.88 13.88 13.933 14.209 13.953 14.031 13.866 13.96 14.128 14.052 13.905 13.712 13.728 13.752 13.724 13.691 13.757 13.572 13.848 13.778 13.645 13.645 13.79 13.672 13.676 13.64 13.685 13.585 13.698 13.527 13.51 13.55 13.435 13.473 13.54 13.507 13.292 13.292 13.292 13.292 13.292 13.292 13.292 13.292 13.292 13.292 13.292 13.292 13.376 13.437 13.419 13.292 13.36 13.292 13.458 13.905 13.626 13.246 13.195 13.195 13.195 13.195 13.407 13.456 13.704 13.381 13.246 13.348 13.246 13.327 13.425 13.48 13.384 13.499 13.832 13.613 13.714 13.323 13.331 13.489 13.386 13.445 13.662 14.425 14.662 14.675 14.595 14.486 14.321 14.263 14.162 14.214 14.25 14.213 14.075 14.023 13.816 13.798 13.673 13.974 13.927 14.022 14 14.048 13.85 13.84 13.862 13.927 13.687 13.705 13.66 13.546 13.574 13.404 13.925 13.971 13.297 13.297 13.297 14.723 13.658 13.843 14.547 13.466 13.485 14.676 13.529 17.046 13.739 13.67 12.95 12.627 12.725 12.692 12.819 12.584 12.415 12.415 12.415 12.594 12.642 12.635 12.439 13.289 12.659 12.52 12.375 12.32 12.346 12.374 12.102 12.02 11.762 11.756 11.756 11.756 12.653 11.579 11.579 11.579 11.579 11.579 11.579 11.579 11.579 11.579 11.579 11.579 11.579 11.579 11.725 11.579 11.579 12.104 11.611 11.611 11.611 12.134 11.934 11.949 12.056 11.859 11.653 12.104 11.575 11.746 11.399 11.689 11.7 11.468 11.661 11.468 11.378 11.509 10.672 11.01 11.386 11.326 10.816 10.816 10.746 10.558 10.716 10.368 10.474 10.913 10.955 10.823 13.942 16.421 13.508 10.548 11.417 10.973 11.229 11.313 11.6 11.53 11.299 11.29 11.405 11.452 11.548 11.519 11.29 11.31 11.29 11.392 11.357 11.29 11.29 11.29 11.511 11.297 11.332 11.563 11.676 11.469 11.652 11.203 11.606 11.568 11.535 11.491 11.6 11.506 11.44 11.273 11.306 11.312 11.176 10.637 10.295 10.295 10.163 10.138 10.178 10.129 10.129 10.129 10.434 10.215 10.142 10.27 10.323 10.146 10.097 10.359 10.371 10.357 10.231 10.009 10.082 9.959 9.987 9.959 9.97 9.959 10.017 9.874 10.033 10.796 9.877 9.81 9.799 9.808 9.839 9.805 9.864 9.729 8.864 8.792 8.606 8.349 9.292 7.159 7.491 8.21 8.573 8.634 8.745 8.877 8.952 9.136 9.173 9.158 9.332 9.52 9.512 9.615 9.639 9.538 9.539 9.71 9.817 9.769 9.922 9.471 9.471 11.921 12.483 12.368 11.417 9.846 9.67 9.67 9.67 9.67 9.82 -9999 -9999 -9999 -9999 -9999 -9999 -9999 -9999 -9999 -9999 -9999 -9999 -9999 -9999 -9999 -9999 -9999 -9999 -9999 -9999 -9999 -9999 -9999 -9999 -9999 -9999 -9999 -9999 -9999 -9999 -9999 -9999 -9999 -9999 -9999 -9999 -9999 -9999 -9999 -9999 -9999 -9999 -9999 -9999 -9999 -9999 -9999 -9999 -9999 -9999 -9999 -9999 -9999 -9999 -9999 -9999 -9999 -9999 -9999 -9999 -9999 -9999 -9999 -9999 -9999 -9999 -9999 -9999 -9999 -9999 -9999 -9999 -9999 -9999 -9999 -9999 -9999 -9999 -9999 -9999 -9999 -9999 -9999 -9999 -9999 -9999 -9999 -9999 -9999 -9999 -9999 -9999 -9999 -9999 -9999 -9999 -9999 -9999 -9999 -9999
14.014 14.266 14.78 14.195 14.286 13.951 13.843 13.833 14.114 13.833 13.938 13.855 13.951 14.02 14.043 14.043 14.52 14.556 14.531 14.188 14.237 14.248 14.569 14.654 14.183 14.176 14.805 15.144 18.956 14.149 14.114 13.976 13.976 13.976 14.055 14.063 14.063 14.077 14.186 14.063 14.063 14.146 14.009 13.999 14.052 14.02 14.336 13.98 14.147 14.126 13.886 13.88 14.236 14.157 14.025 13.866 13.982 13.816 13.896 13.902 13.88 13.777 13.729 13.691 13.691 13.922 13.572 13.892 13.744 13.645 13.71 13.971 13.623 13.623 13.618 13.646 13.637 13.701 13.603 13.705 13.583 13.498 13.435 13.568 13.292 13.435 13.523 13.494 13.52 13.365 13.415 13.337 13.379 13.373 13.292 13.292 13.292 13.388 13.328 13.324 13.292 13.345 13.292 13.392 13.392 13.412 13.256 13.195 13.195 13.195 13.195 13.37 13.332 13.635 13.246 13.246 13.246 13.322 13.246 13.516 13.246 13.246 13.421 13.639 13.523 13.474 13.323 13.323 13.374 13.707 14.549 14.665 14.693 14.505 14.263 14.353 14.225 14.204 14.162 14.253 14.253 14.096 14.043 13.962 14.072 13.798 14.04 13.878 14.08 13.966 13.925 14.01 14.022 13.84 13.895 13.853 13.876 13.69 13.687 13.616 13.537 13.984 13.93 13.297 13.297 13.356 14.617 13.377 13.74 13.304 13.705 14.123 14.003 14.563 13.718 17.832 17.663 13.708 13.415 13.025 12.776 12.684 12.61 12.735 12.609 12.415 12.482 12.667 12.508 12.445 12.445 12.439 13.342 12.69 12.698 12.31 12.272 12.285 12.149 12.004 11.925 11.826 11.756 11.769 11.756 12.699 11.579 11.579 11.579 11.579 11.579 11.579 11.579 11.579 11.579 11.579 11.579 11.579 11.579 11.583 11.579 11.579 12.078 11.611 11.611 11.611 12.126 11.914 11.92 12.016 11.653 11.92 11.932 11.375 11.375 11.375 11.597 11.675 11.468 11.468 11.647 11.378 11.55 10.757 10.9 11.397 11.35 10.975 11.333 11.001 11.012 10.615 10.671 10.471 10.624 10.543 10.523 10.523 10.523 10.523 10.536 10.887 11.051 11.141 11.235 11.318 11.341 11.29 11.29 11.29 11.29 11.29 11.29 11.29 11.29 11.29 11.29 11.29 11.356 11.34 11.663 11.693 11.559 11.487 11.515 11.679 11.656 11.427 11.203 11.246 11.235 11.229 11.24 11.451 11.325 11.536 11.272 11.235 11.191 11.16 10.725 10.575 10.581 10.432 10.386 10.405 10.136 10.129 10.481 10.206 10.142 10.173 10.179 10.351 10.137 10.097 10.237 10.282 10.297 10.347 10.207 9.994 9.965 9.959 10.17 10.226 10.153 10.144 9.874 10.047 9.956 9.828 9.781 9.781 9.781 9.781 9.812 9.925 9.68 9.069 9.018 8.631 8.706 8.501 9.458 7.159 7.35 8.654 8.418 8.56 8.748 8.87 9.18 9.213 9.199 9.477 9.49 9.641 9.626 9.579 9.532 9.59 9.674 9.688 9.471 9.471 11.343 12.548 12.573 12.106 9.153 9.153 9.705 9.67 9.67 9.67 9.67 9.716 -9999 -9999 -9999 -9999 -9999 -9999 -9999 -9999 -9999 -9999 -9999 -9999 -9999 -9999 -9999 -9999 -9999 -9999 -9999 -9999 -9999 -9999 -9999 -9999 -9999 -9999 -9999 -9999 -9999 -9999 -9999 -9999 -9999 -9999 -9999 -9999 -9999 -9999 -9999 -9999 -9999 -9999 -9999 -9999 -9999 -9999 -9999 -9999 -9999 -9999 -9999 -9999 -9999 -9999 -9999 -9999 -9999 -9999 -9999 -9999 -9999 -9999 -9999 -9999 -9999 -9999 -9999 -9999 -9999 -9999 -9999 -9999 -9999 -9999 -9999 -9999 -9999 -9999 -9999 -9999 -9999 -9999 -9999 -9999 -9999 -9999 -9999 -9999 -9999 -9999 -9999 -9999 -9999 -9999 -9999 -9999 -9999 -9999 -9999 -9999
14.112 14.133 14.424 14.195 14.358 14.14 13.833 13.833 13.833 13.833 14.132 14.2 14.341 13.951 14.132 14.161 14.267 14.234 14.227 14.174 14.174 14.217 14.393 14.403 14.371 14.355 14.839 15.138 15.878 14.069 13.997 13.976 13.976 13.976 13.988 14.116 14.063 14.169 14.063 14.122 14.063 14.151 14.048 14.119 14.334 14.132 14.229 14 14.123 14.133 13.935 13.983 14.105 14.128 13.913 13.866 13.879 13.878 13.782 13.86 13.782 13.691 13.691 13.827 13.724 13.697 13.572 13.818 13.667 13.645 13.703 13.929 13.623 13.858 13.61 13.68 13.739 13.591 13.718 13.611 13.61 13.64 13.642 13.664 13.292 13.599 13.499 13.62 13.581 13.499 13.484 13.322 13.408 13.351 13.376 13.301 13.476 13.292 13.292 13.39 13.408 13.292 13.292 13.319 13.484 13.378 13.254 13.195 13.195 13.195 13.195 13.332 13.358 13.769 13.249 13.247 13.425 13.438 13.246 13.508 14.009 13.246 13.412 13.458 13.283 13.323 13.368 13.954 14.434 14.71 14.654 14.447 14.546 14.418 14.242 14.211 14.263 14.263 14.233 14.148 14.177 14.169 14.042 13.969 13.962 13.874 13.949 13.994 13.88 13.979 13.928 13.924 13.933 13.928 14.04 13.829 13.776 13.688 13.908 14.071 13.964 13.295 13.297 13.297 13.573 13.667 14.142 13.478 13.304 13.345 14.145 15.653 16.686 13.87 16.549 13.279 13.279 13.159 12.876 12.876 12.557 12.721 12.599 12.794 12.849 12.821 12.879 12.881 12.817 12.764 12.975 12.569 13.291 12.54 12.621 12.347 12.191 12.251 12.128 11.9 11.845 11.751 11.675 11.873 12.07 12.61 11.579 11.579 11.579 11.579 11.579 11.579 11.579 11.579 11.589 11.579 11.579 11.579 11.579 11.579 11.579 11.603 12.276 11.611 11.611 11.611 12.096 11.8 11.84 11.74 11.391 12.019 11.474 11.375 11.375 11.375 11.539 11.562 11.55 11.529 11.688 11.537 11.537 10.9 10.88 11.322 11.375 11.05 10.861 10.878 10.471 10.471 10.552 10.729 10.471 10.471 10.654 10.688 15.065 16.322 11.463 10.913 11.405 11.387 11.399 11.654 11.78 11.53 11.559 11.685 11.767 11.621 11.336 11.31 11.431 11.429 11.59 11.474 11.399 11.261 11.367 11.657 11.627 11.218 11.396 11.556 11.515 11.457 11.203 11.203 11.203 11.203 11.203 11.331 11.325 11.483 11.295 11.11 11.069 10.835 10.585 10.361 10.361 10.378 10.337 10.23 10.063 10.078 10.403 10.137 10.189 10.133 10.108 10.222 10.098 10.097 10.196 10.266 10.35 10.251 10.257 10.25 10.133 9.993 10.038 10.092 10.095 9.965 9.874 9.908 9.904 9.88 9.801 9.781 9.781 9.781 9.868 9.888 9.703 9.018 9.021 8.948 8.734 8.665 8.404 9.152 7.159 7.438 8.018 8.534 8.758 8.892 8.944 9.138 9.19 9.48 9.627 9.676 9.805 9.674 9.739 9.532 9.471 9.471 10.414 12.576 12.79 12.392 9.621 9.153 9.153 9.773 9.735 9.758 9.67 9.67 9.714 9.831 -9999 -9999 -9999 -9999 -9999 -9999 -9999 -9999 -9999 -9999 -9999 -9999 -9999 -9999 -9999 -9999 -9999 -9999 -9999 -9999 -9999 -9999 -9999 -9999 -9999 -9999 -9999 -9999 -9999 -9999 -9999 -9999 -9999 -9999 -9999 -9999 -9999 -9999 -9999 -9999 -9999 -9999 -9999 -9999 -9999 -9999 -9999 -9999 -9999 -9999 -9999 -9999 -9999 -9999 -9999 -9999 -9999 -9999 -9999 -9999 -9999 -9999 -9999 -9999 -9999 -9999 -9999 -9999 -9999 -9999 -9999 -9999 -9999 -9999 -9999 -9999 -9999 -9999 -9999 -9999 -9999 -9999 -9999 -9999 -9999 -9999 -9999 -9999 -9999 -9999 -9999 -9999 -9999 -9999 -9999 -9999 -9999 -9999 -9999 -9999
14.258 14.272 14.199 14.195 14.393 14.128 13.833 13.833 13.833 13.942 13.939 13.967 14.242 14.022 14.225 14.182 14.211 14.237 14.189 14.174 14.174 14.259 14.161 14.217 14.161 14.655 14.874 15.119 14.008 14.008 13.976 13.976 13.976 13.976 14.161 14.108 14.063 14.063 14.204 14.117 14.087 14.1 14.048 14.06 14.21 14.145 14.194 14.117 14.198 14.081 14.261 14.236 13.912 14.333 14.067 13.866 13.961 13.869 13.782 13.782 13.822 13.876 13.864 13.691 13.879 13.672 13.572 13.804 13.647 13.645 13.657 13.633 13.705 13.792 13.795 13.583 13.583 13.583 13.583 13.597 13.651 13.682 13.617 13.616 13.38 13.292 13.292 13.318 13.318 13.318 13.358 13.314 13.306 13.301 13.301 13.301 13.356 13.331 13.292 13.292 13.292 13.292 13.292 13.292 13.476 13.558 13.247 13.204 13.195 13.195 13.195 13.195 13.273 13.702 13.321 13.263 13.246 13.29 13.246 13.79 13.246 13.246 13.289 13.246 13.246 14.186 14.359 14.631 14.64 14.315 14.456 14.357 14.284 14.117 14.318 14.152 14.144 14.13 14.199 14.142 14.152 14.129 14.026 13.936 13.874 13.874 13.883 13.947 13.951 13.88 13.91 13.97 13.996 13.947 13.994 13.826 13.943 14.09 13.966 13.295 13.295 13.295 13.585 13.627 13.713 13.687 15.231 13.304 13.507 14.762 13.284 13.266 13.33 17.129 20.571 13.639 13.765 13.963 13.783 13.034 12.705 12.482 12.531 12.581 12.445 12.445 12.445 12.495 12.838 12.908 13.067 12.695 13.441 12.641 12.465 12.21 12.153 12.26 12.013 11.902 11.787 11.88 11.852 11.675 11.675 12.553 11.579 11.579 11.579 11.579 11.579 11.579 11.579 11.579 11.579 11.579 11.579 11.579 11.579 11.579 11.643 11.651 12.438 11.671 11.611 11.611 12.114 11.743 11.782 11.565 12.099 11.389 11.442 11.377 11.428 11.375 11.556 11.575 11.482 11.566 11.47 11.538 11.217 11.053 10.945 10.88 11.086 11.153 10.873 10.471 10.592 10.661 10.471 10.471 10.549 10.612 10.81 10.827 11.789 15.868 15.093 10.913 11.786 11.436 11.496 11.62 11.771 11.437 11.635 11.559 11.842 11.365 11.46 11.364 11.207 11.173 11.281 11.195 11.19 11.197 11.302 11.562 11.529 11.101 11.401 11.572 11.557 11.446 11.203 11.203 11.211 11.203 11.203 11.26 11.233 11.381 11.272 11.176 10.93 10.854 10.5 10.399 10.361 10.48 10.583 10.063 10.338 10.324 10.154 10.048 10.069 10.108 10.114 10.18 10.06 10.074 10.134 10.151 10.245 10.212 10.311 10.133 10.253 10.172 10.136 10.355 10.331 10.167 9.874 10.008 10.017 9.949 9.781 9.978 9.822 9.781 9.869 9.916 9.564 9.152 8.874 8.865 8.844 8.404 8.556 8.419 9.306 7.159 8.792 8.571 8.534 8.784 9.037 9.028 9.176 9.467 9.634 9.719 9.8 9.778 9.471 9.471 9.803 12.746 12.901 12.67 10.794 9.153 9.153 10.113 10.02 9.838 9.727 9.674 9.841 9.67 9.67 9.849 -9999 -9999 -9999 -9999 -9999 -9999 -9999 -9999 -9999 -9999 -9999 -9999 -9999 -9999 -9999 -9999 -9999 -9999 -9999 -9999 -9999 -9999 -9999 -9999 -9999 -9999 -9999 -9999 -9999 -9999 -9999 -9999 -9999 -9999 -9999 -9999 -9999 -9999 -9999 -9999 -9999 -9999 -9999 -9999 -9999 -9999 -9999 -9999 -9999 -9999 -9999 -9999 -9999 -9999 -9999 -9999 -9999 -9999 -9999 -9999 -9999 -9999 -9999 -9999 -9999 -9999 -9999 -9999 -9999 -9999 -9999 -9999 -9999 -9999 -9999 -9999 -9999 -9999 -9999 -9999 -9999 -9999 -9999 -9999 -9999 -9999 -9999 -9999 -9999 -9999 -9999 -9999 -9999 -9999 -9999 -9999 -9999 -9999 -9999 -9999
14.195 14.912 14.233 14.195 14.4 14.105 13.833 13.833 14.151 14.128 14.029 14.075 14.148 14.127 14.12 14.14 14.147 14.174 14.174 14.174 14.174 14.234 14.206 14.161 14.161 15.282 14.9 15.065 14.016 14.022 14.029 13.976 13.976 13.976 13.976 14.138 14.285 14.076 14.063 14.063 14.153 14.196 14.048 14.048 14.048 14.182 14.164 14.014 14.175 14.29 14.164 14.099 13.912 14.154 14.169 13.866 14.009 13.939 13.918 13.907 13.844 13.773 13.821 13.76 13.822 13.773 13.572 13.737 13.726 13.645 13.948 13.798 13.615 13.698 13.932 13.634 13.583 13.583 13.583 13.583 13.67 13.648 13.653 13.555 13.435 13.558 13.396 13.599 13.801 13.449 13.384 13.459 13.301 13.301 13.477 13.301 13.562 13.638 13.292 13.415 13.43 13.323 13.292 13.432 13.497 13.572 13.242 13.195 13.195 13.195 13.195 13.195 13.195 13.611 13.367 13.246 13.246 13.329 13.246 13.246 13.246 13.248 13.246 14.095 14.349 14.575 14.636 14.326 14.389 14.429 14.237 14.244 14.256 14.117 14.149 14.055 14.184 14 14.292 14.205 14.02 13.961 13.914 13.961 13.977 13.975 13.874 13.989 13.88 14.191 14.099 14.052 14.088 13.943 14.127 14.135 13.527 13.295 13.295 13.81 13.672 13.498 13.852 13.726 14.078 13.444 15.072 14.722 13.292 13.363 13.19 13.27 14.883 13.445 15.401 13.367 13.62 13.879 13.839 13.028 12.67 12.434 12.557 12.471 12.445 12.841 12.445 12.445 12.777 12.939 13.102 12.588 13.302 12.496 12.307 12.221 12.134 12.031 12.052 12.054 11.881 11.687 11.687 11.675 11.675 12.502 11.579 11.579 11.579 11.579 11.579 11.579 11.579 11.579 11.579 11.579 11.579 11.579 11.579 11.579 11.579 11.579 12.546 11.611 11.611 11.611 12.121 11.66 11.504 12.022 11.369 11.454 11.461 11.414 11.325 11.24 11.375 11.354 11.517 11.148 11.326 11.341 11.301 11.208 10.88 10.967 11.188 11.046 11.048 11.063 10.895 10.687 10.471 10.471 10.516 10.54 10.723 10.819 10.819 14.875 14.53 10.935 11.331 11.471 11.486 11.534 11.61 11.437 11.563 11.837 12.105 11.604 11.557 11.381 11.112 11.081 11.494 11.48 11.072 11.119 11.412 11.639 11.503 11.092 11.47 12.015 12.24 11.496 11.221 11.257 11.278 11.226 11.363 11.203 11.311 11.236 11.044 11.193 10.942 10.544 10.284 10.378 10.354 10.289 10.274 10.042 10.207 10.221 10.434 9.959 10.083 10.08 10.081 10.155 10.134 10.06 10.124 10.195 10.204 10.222 10.255 10.24 10.253 10.243 10.237 10.355 10.398 10.36 9.874 10.071 10.128 9.917 9.821 9.934 9.781 9.781 9.839 9.948 9.601 9.22 9.002 8.987 8.404 8.404 8.726 8.471 8.338 8.071 7.159 9.282 8.534 8.743 8.905 9.048 9.212 9.348 9.646 9.714 9.953 9.121 9.579 12.728 13.081 12.891 11.609 9.153 9.153 9.996 9.931 9.968 9.804 9.72 9.708 9.71 9.683 9.67 9.67 9.948 -9999 -9999 -9999 -9999 -9999 -9999 -9999 -9999 -9999 -9999 -9999 -9999 -9999 -9999 -9999 -9999 -9999 -9999 -9999 -9999 -9999 -9999 -9999 -9999 -9999 -9999 -9999 -9999 -9999 -9999 -9999 -9999 -9999 -9999 -9999 -9999 -9999 -9999 -9999 -9999 -9999 -9999 -9999 -9999 -9999 -9999 -9999 -9999 -9999 -9999 -9999 -9999 -9999 -9999 -9999 -9999 -9999 -9999 -9999 -9999 -9999 -9999 -9999 -9999 -9999 -9999 -9999 -9999 -9999 -9999 -9999 -9999 -9999 -9999 -9999 -9999 -9999 -9999 -9999 -9999 -9999 -9999 -9999 -9999 -9999 -9999 -9999 -9999 -9999 -9999 -9999 -9999 -9999 -9999 -9999 -9999 -9999 -9999 -9999 -9999
14.546 14.195 14.195 14.195 14.376 14.12 13.833 13.961 14.158 14.225 14.19 14.134 14.284 14.051 14.401 14.471 14.45 14.361 14.25 14.174 14.174 14.23 14.204 14.161 14.161 16.58 14.932 15.031 14.239 14.002 14.002 13.976 13.976 13.976 13.991 14.191 14.048 14.12 14.208 14.068 14.153 14.063 14.055 14.053 14.048 14.166 14.136 14.046 14.014 13.986 13.916 13.897 13.866 13.881 13.866 13.866 13.866 13.866 13.794 13.897 13.845 13.76 13.76 13.776 13.734 13.901 13.572 13.588 13.645 13.645 13.745 13.855 13.609 13.645 13.561 13.634 13.639 13.736 13.583 13.6 13.634 13.646 13.712 13.574 13.45 13.58 13.515 13.518 13.694 13.462 13.384 13.482 13.41 13.425 13.36 13.301 13.456 13.479 13.322 13.342 13.369 13.292 13.519 13.374 13.395 13.487 13.308 13.212 13.25 13.195 13.195 13.195 13.344 13.475 13.285 13.246 13.246 13.246 13.246 13.246 13.44 14.091 14.24 14.474 14.53 14.368 14.432 14.415 14.226 14.286 14.231 14.16 14.082 14.09 14.204 14.049 14.261 14.12 13.974 13.932 13.932 13.914 14.071 14.112 13.914 14.003 13.874 14.207 14.142 14.183 14.186 13.918 14.129 14.209 13.295 13.295 13.295 13.295 13.532 13.579 13.564 13.338 13.638 13.577 14.118 13.444 13.444 13.553 13.602 13.009 13.009 12.99 12.839 13.142 12.903 13.252 12.878 13.196 13.391 12.471 12.471 12.498 12.434 12.434 12.434 12.61 12.445 12.534 12.796 12.812 13.017 12.507 13.244 12.464 12.286 12.274 12.147 11.973 12.03 11.988 11.939 11.732 11.689 11.675 11.675 12.721 11.579 11.579 11.579 11.579 11.579 12.003 11.579 11.579 11.579 11.579 11.579 12.012 11.579 11.579 11.579 11.579 12.617 11.611 11.611 11.611 12.116 11.577 11.93 11.369 11.369 11.369 11.394 11.448 11.179 11.517 11.591 11.352 11.258 11.148 11.207 11.013 11.224 11.215 11.109 11.106 11.226 11.235 11.212 11.161 10.872 10.66 10.471 10.471 10.471 10.471 10.619 10.824 10.85 13.215 13.618 11.663 11.18 11.594 11.61 11.545 11.407 11.364 11.457 11.981 12.133 11.905 11.478 11.342 11.049 11.209 11.192 11.312 11.193 11.004 11.697 11.515 11.421 10.993 11.45 12.719 12.461 11.635 11.172 11.116 11.116 11.116 10.912 10.92 11.213 10.868 10.682 11.093 10.878 10.69 10.284 10.284 10.276 10.147 10.147 9.892 10.025 10.11 9.883 10.032 10.023 9.977 10.034 10.235 10.047 10.099 10.065 10.18 10.146 10.215 10.161 10.122 10.226 10.272 10.237 10.319 10.349 10.383 9.874 10.204 10.22 9.936 9.873 10.003 9.781 9.781 9.781 9.881 9.666 9.355 9.118 9.054 8.749 8.583 8.785 8.586 8.376 8.314 7.159 7.871 8.402 8.559 8.912 9.009 9.109 9.164 9.648 9.121 9.121 12.466 13.424 13.073 12.608 9.153 9.153 9.496 9.696 9.76 9.679 9.698 9.758 9.634 9.669 9.664 9.672 9.67 9.771 10.031 -9999 -9999 -9999 -9999 -9999 -9999 -9999 -9999 -9999 -9999 -9999 -9999 -9999 -9999 -9999 -9999 -9999 -9999 -9999 -9999 -9999 -9999 -9999 -9999 -9999 -9999 -9999 -9999 -9999 -9999 -9999 -9999 -9999 -9999 -9999 -9999 -9999 -9999 -9999 -9999 -9999 -9999 -9999 -9999 -9999 -9999 -9999 -9999 -9999 -9999 -9999 -9999 -9999 -9999 -9999 -9999 -9999 -9999 -9999 -9999 -9999 -9999 -9999 -9999 -9999 -9999 -9999 -9999 -9999 -9999 -9999 -9999 -9999 -9999 -9999 -9999 -9999 -9999 -9999 -9999 -9999 -9999 -9999 -9999 -9999 -9999 -9999 -9999 -9999 -9999 -9999 -9999 -9999 -9999 -9999 -9999 -9999 -9999 -9999 -9999
14.707 14.232 14.195 14.195 14.493 14.097 13.833 13.867 14.321 14.256 14.186 14.162 14.285 14.051 14.585 14.523 14.639 14.535 14.174 14.174 14.174 14.226 14.188 14.374 14.161 17.807 14.955 15.035 14.395 14.13 14.131 14.127 13.976 13.976 14.055 14.033 14.108 14.116 14.19 14.19 14.24 14.155 14.113 14.064 14.048 14.051 14.036 14.158 14.141 13.968 13.958 13.963 13.866 13.866 13.866 14.075 13.866 14.015 13.955 13.794 13.86 13.76 13.801 13.811 13.873 13.694 13.572 13.572 13.79 13.845 13.748 13.694 13.609 13.72 13.561 13.863 13.86 13.872 13.564 13.564 13.564 13.633 13.755 13.6 13.45 13.543 13.447 13.565 13.493 13.612 13.646 13.437 13.352 13.517 13.361 13.527 13.338 13.339 13.322 13.346 13.342 13.347 13.292 13.574 13.411 13.307 13.335 13.361 13.409 13.416 13.236 13.195 13.195 13.27 13.397 13.246 13.246 13.246 13.528 14.09 14.342 14.434 14.472 14.433 14.576 14.268 14.18 14.255 14.221 14.192 14.03 13.965 13.914 14.172 14.105 13.958 13.937 13.915 14.063 14.006 14.074 13.948 13.914 13.914 14.46 14.144 14.296 14.278 14.183 13.837 14.103 14.155 13.383 13.295 13.295 13.295 13.791 13.295 13.295 13.295 13.295 13.784 13.381 13.385 13.371 13.742 13.493 13.569 13.07 13.009 13.323 12.905 12.925 12.697 12.614 12.942 12.589 12.545 12.806 12.492 12.514 12.434 12.434 12.434 12.434 12.794 12.705 12.699 12.839 12.688 12.962 12.507 13.214 12.38 12.287 12.175 12.138 11.975 11.867 11.939 11.814 11.683 11.683 11.675 11.675 12.763 11.579 11.579 11.579 11.579 11.579 11.579 11.579 11.579 11.579 11.579 11.579 11.579 11.579 11.677 11.579 11.579 12.841 11.611 11.611 11.611 12.144 11.408 11.729 11.622 11.6 11.509 11.369 11.304 11.133 11.367 11.391 11.431 11.016 10.918 10.918 10.918 10.974 10.974 11.039 11.229 11.307 11.255 11.231 11.068 10.918 10.688 10.525 10.471 10.522 10.471 10.968 11.115 11.045 11.16 12.653 12.21 11.148 11.515 11.535 11.39 11.3 11.287 11.469 11.736 12.099 12.019 11.485 11.241 11.049 11.134 11.424 11.281 11.198 11.004 11.532 11.45 11.407 10.964 11.326 11.464 11.123 11.325 11.268 11.544 11.618 11.542 11.415 10.912 11.189 10.959 10.658 10.729 10.69 10.73 10.284 10.463 10.55 10.366 10.444 9.843 9.843 9.859 9.8 9.951 9.898 10.033 10.025 10.19 10 10.058 10.177 10.079 10.152 10.123 10.265 10.122 10.122 10.276 10.237 10.45 10.192 10.161 9.965 10.308 10.251 9.973 9.862 9.812 9.839 9.841 9.801 9.701 9.699 9.415 9.234 9.311 9.232 8.855 8.774 8.667 8.47 8.299 9.128 7.159 8.432 8.467 8.742 8.977 9.036 9.121 9.121 11.149 13.838 13.31 12.8 10.247 9.034 9.291 9.822 9.25 9.675 9.71 9.697 9.647 9.628 9.661 9.641 9.641 9.67 9.773 9.851 10.005 -9999 -9999 -9999 -9999 -9999 -9999 -9999 -9999 -9999 -9999 -9999 -9999 -9999 -9999 -9999 -9999 -9999 -9999 -9999 -9999 -9999 -9999 -9999 -9999 -9999 -9999 -9999 -9999 -9999 -9999 -9999 -9999 -9999 -9999 -9999 -9999 -9999 -9999 -9999 -9999 -9999 -9999 -9999 -9999 -9999 -9999 -9999 -9999 -9999 -9999 -9999 -9999 -9999 -9999 -9999 -9999 -9999 -9999 -9999 -9999 -9999 -9999 -9999 -9999 -9999 -9999 -9999 -9999 -9999 -9999 -9999 -9999 -9999 -9999 -9999 -9999 -9999 -9999 -9999 -9999 -9999 -9999 -9999 -9999 -9999 -9999 -9999 -9999 -9999 -9999 -9999 -9999 -9999 -9999 -9999 -9999 -9999 -9999 -9999 -9999
14.589 14.21 14.195 14.195 14.398 14.001 13.833 13.881 14.404 14.186 14.238 14.162 14.363 14.011 14.067 13.922 14.213 14.542 14.445 14.174 14.174 14.377 14.161 14.442 14.161 14.456 14.986 15.012 14.259 14.069 14.069 13.976 13.976 13.976 13.976 14.221 14.073 14.131 14.256 14.203 14.104 14.088 14.201 14.173 14.036 14.036 14.042 14.062 14.042 13.963 13.941 13.941 13.955 13.97 13.98 14.01 13.925 14.007 13.93 13.864 13.794 13.864 13.932 13.73 13.73 13.796 13.572 14.162 13.739 13.73 13.91 13.887 13.609 13.609 13.561 13.767 13.763 13.755 13.683 13.564 13.564 13.638 13.659 13.75 13.45 13.526 13.405 13.602 13.565 13.69 13.523 13.522 13.417 13.344 13.354 13.338 13.338 13.392 13.335 13.699 13.654 13.424 13.292 14.372 13.469 13.538 13.292 13.292 13.292 13.32 13.423 13.195 13.318 13.395 13.246 13.248 13.54 14.201 14.362 14.446 14.453 14.566 14.361 14.105 14.155 14.166 14.172 14.264 13.876 13.973 13.774 13.687 13.83 13.859 13.9 13.887 13.887 14.11 14.006 13.887 13.887 13.914 13.918 14.073 14.212 14.183 14.166 13.82 14.172 14.194 13.433 13.295 13.295 13.295 13.295 13.295 13.295 13.303 13.295 13.446 13.295 13.487 13.206 13.206 13.206 13.206 13.206 13.074 13.142 13.076 13.61 12.67 12.9 12.728 12.65 12.6 12.545 12.589 12.552 12.502 12.434 12.459 12.434 12.518 12.434 12.434 12.434 12.434 12.434 12.559 12.91 12.507 13.163 12.342 12.219 12.188 12.089 11.979 11.748 11.957 11.718 11.7 11.763 11.678 11.675 12.641 11.579 11.579 11.579 11.579 11.579 11.579 11.579 11.579 11.579 11.579 11.579 11.768 11.579 12.503 11.634 11.637 11.994 11.712 11.611 11.661 11.634 11.864 11.408 11.408 11.494 11.893 11.765 11.133 11.133 11.133 11.012 10.918 10.918 10.935 10.918 10.918 10.975 10.974 11.006 11.242 11.268 11.215 11.204 11.095 10.854 10.667 10.575 10.471 10.949 10.471 11.497 11.555 11.5 11.045 11.8 11.889 11.148 11.312 11.42 11.567 11.715 11.283 11.424 11.387 11.387 11.834 11.476 11.194 11.049 11.049 11.072 11.038 11.038 11.004 11.43 11.342 11.32 10.866 10.894 10.996 10.959 11.056 10.959 11.427 11.593 11.486 11.448 10.912 10.981 10.944 10.658 10.789 10.765 10.849 10.284 10.393 10.534 10.366 10.376 9.843 9.843 9.843 9.797 9.895 9.857 9.96 10.077 10.095 10 10.038 10.111 10.13 10.094 10.126 10.134 10.122 10.266 10.327 10.364 10.95 10.99 10.693 10.066 10.335 10.298 9.973 9.819 9.812 9.812 9.968 9.797 9.699 9.844 9.597 9.394 9.253 9.242 9.035 8.816 8.673 8.615 8.358 8.939 7.159 8.573 8.319 8.677 8.849 8.566 9.159 13.113 13.61 13.021 11.306 9.034 9.034 9.691 9.484 9.506 9.276 9.334 9.688 9.871 9.563 9.687 9.825 9.641 9.718 9.716 9.821 9.879 10.072 -9999 -9999 -9999 -9999 -9999 -9999 -9999 -9999 -9999 -9999 -9999 -9999 -9999 -9999 -9999 -9999 -9999 -9999 -9999 -9999 -9999 -9999 -9999 -9999 -9999 -9999 -9999 -9999 -9999 -9999 -9999 -9999 -9999 -9999 -9999 -9999 -9999 -9999 -9999 -9999 -9999 -9999 -9999 -9999 -9999 -9999 -9999 -9999 -9999 -9999 -9999 -9999 -9999 -9999 -9999 -9999 -9999 -9999 -9999 -9999 -9999 -9999 -9999 -9999 -9999 -9999 -9999 -9999 -9999 -9999 -9999 -9999 -9999 -9999 -9999 -9999 -9999 -9999 -9999 -9999 -9999 -9999 -9999 -9999 -9999 -9999 -9999 -9999 -9999 -9999 -9999 -9999 -9999 -9999 -9999 -9999 -9999 -9999 -9999 -9999
14.598 14.435 14.195 14.195 14.531 14.076 13.833 14.01 14.405 14.347 14.237 14.221 14.425 14.011 14.127 13.922 14.338 14.412 14.36 14.174 14.464 14.381 14.161 14.421 14.161 14.397 15.007 14.965 14.126 14.359 14.133 13.976 14.001 14.156 14.096 14.083 14.066 14.066 14.066 14.161 14.158 14.157 14.088 14.119 14.111 14.184 13.977 14.083 14.179 14.095 13.965 14.012 13.925 14.132 13.949 13.925 13.925 13.938 13.853 13.815 13.81 13.952 13.895 13.865 13.741 13.814 13.572 14.324 13.73 13.765 13.73 13.683 13.692 13.756 13.598 13.561 13.619 13.561 13.635 13.674 13.645 13.514 13.584 13.45 13.464 13.519 13.373 13.592 13.715 13.369 13.491 13.498 13.451 13.541 13.338 13.338 13.338 13.406 13.309 13.292 13.292 13.292 13.292 15.633 13.316 13.364 13.292 13.292 13.292 13.309 13.362 13.217 13.195 13.29 13.704 14.058 14.219 14.458 14.438 14.327 14.294 14.093 13.893 13.893 14.23 14.216 13.993 13.97 13.687 13.687 13.687 13.842 13.821 13.815 13.832 14.09 14.12 13.887 13.887 14.005 13.887 14.03 14.207 14.142 14.137 13.977 14.296 14.234 13.35 13.295 13.347 13.295 13.295 13.295 13.295 13.295 13.641 13.676 13.295 13.304 13.389 13.364 13.278 13.33 13.323 13.318 13.219 12.96 12.96 12.899 12.74 12.728 12.67 12.603 12.545 12.545 12.545 12.555 12.603 12.556 12.434 12.434 12.434 12.434 12.434 12.434 12.434 12.434 12.434 12.504 12.927 12.507 13.11 12.293 12.162 12.105 11.996 12.024 11.978 11.675 11.675 11.675 11.675 11.675 11.851 12.529 11.579 11.579 11.579 11.65 11.579 11.579 12.367 11.904 11.759 11.89 11.698 11.579 11.579 11.579 11.627 11.627 11.825 11.56 11.562 11.547 11.95 11.456 11.433 11.408 11.47 11.817 11.775 11.171 11.581 11.458 11.175 11.143 11.002 10.985 10.918 10.918 11 10.991 11.086 11.439 11.261 11.292 11.285 11.101 10.7 10.868 10.653 10.54 10.853 10.471 11.369 11.425 11.249 11.155 11.243 11.65 11.148 11.188 11.095 11.298 11.283 11.305 11.387 11.457 11.39 12.064 11.481 11.109 11.049 11.101 11.415 11.149 11.134 11.359 10.994 11.327 11.228 10.805 10.691 10.71 10.888 10.802 10.783 11.376 11.603 11.637 11.328 10.912 10.986 10.972 10.588 10.995 10.547 10.697 10.284 10.62 10.686 10.522 10.558 9.843 9.929 10.028 9.797 9.922 9.826 9.907 9.903 10.016 10 10 10 10.171 10.107 10.144 10.195 10.063 10.294 10.285 10.293 10.864 10.913 10.815 9.985 10.295 10.313 10.267 9.889 9.844 9.967 9.848 9.829 9.905 9.886 9.808 9.744 9.465 9.445 9.2 9.012 8.79 8.615 8.271 8.444 7.159 9.257 8.319 8.566 8.566 10.849 13.736 13.44 12.775 9.034 9.034 9.845 9.849 9.636 9.513 9.537 9.363 9.352 9.267 9.349 9.555 9.722 9.641 9.641 9.757 9.82 10.024 9.974 -9999 -9999 -9999 -9999 -9999 -9999 -9999 -9999 -9999 -9999 -9999 -9999 -9999 -9999 -9999 -9999 -9999 -9999 -9999 -9999 -9999 -9999 -9999 -9999 -9999 -9999 -9999 -9999 -9999 -9999 -9999 -9999 -9999 -9999 -9999 -9999 -9999 -9999 -9999 -9999 -9999 -9999 -9999 -9999 -9999 -9999 -9999 -9999 -9999 -9999 -9999 -9999 -9999 -9999 -9999 -9999 -9999 -9999 -9999 -9999 -9999 -9999 -9999 -9999 -9999 -9999 -9999 -9999 -9999 -9999 -9999 -9999 -9999 -9999 -9999 -9999 -9999 -9999 -9999 -9999 -9999 -9999 -9999 -9999 -9999 -9999 -9999 -9999 -9999 -9999 -9999 -9999 -9999 -9999 -9999 -9999 -9999 -9999 -9999 -9999 -9999
14.457 14.635 14.195 14.195 14.487 14.073 13.833 14.096 14.363 14.498 14.387 14.422 14.288 14.011 14.108 13.922 14.518 14.464 14.514 14.22 14.578 14.486 14.161 14.161 14.161 14.378 15.037 14.922 14.024 14.053 14.158 13.982 13.995 14.071 14.082 14.066 14.085 14.066 14.066 14.066 14.066 14.066 14.246 14.108 13.763 14.006 14.01 13.977 13.946 13.964 13.946 13.968 13.925 13.925 14.17 13.958 13.925 13.951 14.079 13.949 13.965 14.026 13.969 14.024 13.935 13.702 13.572 13.732 13.889 13.748 13.683 13.696 13.561 13.756 13.828 13.663 13.561 13.592 13.61 13.731 13.655 13.514 13.627 13.65 13.498 13.598 13.373 13.588 13.638 13.369 13.524 13.561 13.49 13.629 13.364 13.342 13.439 13.394 13.412 13.325 13.292 13.292 13.292 17.427 13.427 13.316 13.292 13.292 13.331 13.292 13.293 13.195 13.811 13.913 14.321 14.058 14.028 14.36 14.134 13.888 13.872 13.893 14.021 14.115 14.008 13.925 13.687 13.687 13.701 13.729 13.796 13.777 13.77 13.916 14.098 13.77 14.398 13.887 13.887 14.005 14.058 14.033 14.071 14.025 14.291 14.155 13.295 13.295 13.295 13.295 13.295 13.316 13.295 13.466 13.606 13.721 13.627 13.256 13.2 13.29 13.28 13.28 13.754 13.669 13.599 13.391 13.136 13.122 13.285 13.127 13.098 12.899 12.906 12.545 12.545 12.545 12.545 12.562 12.631 12.521 12.434 12.434 12.434 12.434 12.434 12.472 12.434 12.486 12.434 12.443 12.851 12.507 13.051 11.813 12.382 12.309 12.264 11.778 11.778 11.965 11.675 11.715 11.891 11.698 11.893 11.985 12.128 12.167 12.018 11.737 11.671 11.579 11.579 11.607 11.668 11.668 11.98 12.028 11.579 11.689 11.71 11.749 11.718 11.859 11.463 11.908 11.396 11.659 11.532 11.408 11.408 11.851 11.826 11.171 11.925 11.661 11.444 11.261 10.951 10.918 10.918 10.918 10.968 10.965 11.065 11.236 11.214 11.214 11.299 11.125 11.14 11.116 10.601 10.491 10.477 10.471 11.26 11.221 10.999 10.958 10.914 11.421 11.316 10.804 10.899 10.899 10.899 10.922 11.047 11.594 11.733 11.93 11.335 11.214 11.049 11.123 10.928 11.021 11.085 11.329 10.912 11.164 11.191 10.653 10.61 10.691 10.673 10.599 10.647 11.233 11.5 11.381 11.158 10.924 10.912 10.901 10.914 10.547 10.564 10.57 10.284 10.51 10.694 10.609 10.397 9.843 10.227 10.244 9.784 9.791 9.821 9.995 9.896 10 10.017 10.053 10.055 10.059 10.099 10.074 10.124 10.063 10.135 10.094 10.054 10.054 10.054 10.07 9.815 10.186 10.186 10.271 10.162 9.86 9.893 9.695 9.716 9.73 9.687 9.7 9.672 9.504 9.388 9.192 9.065 8.866 8.6 8.446 8.154 7.159 8.051 8.823 9.084 12.479 13.65 13.422 11.317 8.842 9.313 9.667 9.741 9.803 9.742 9.529 9.556 9.443 9.302 9.159 9.175 9.601 9.655 9.641 9.641 9.79 9.807 10.101 -9999 -9999 -9999 -9999 -9999 -9999 -9999 -9999 -9999 -9999 -9999 -9999 -9999 -9999 -9999 -9999 -9999 -9999 -9999 -9999 -9999 -9999 -9999 -9999 -9999 -9999 -9999 -9999 -9999 -9999 -9999 -9999 -9999 -9999 -9999 -9999 -9999 -9999 -9999 -9999 -9999 -9999 -9999 -9999 -9999 -9999 -9999 -9999 -9999 -9999 -9999 -9999 -9999 -9999 -9999 -9999 -9999 -9999 -9999 -9999 -9999 -9999 -9999 -9999 -9999 -9999 -9999 -9999 -9999 -9999 -9999 -9999 -9999 -9999 -9999 -9999 -9999 -9999 -9999 -9999 -9999 -9999 -9999 -9999 -9999 -9999 -9999 -9999 -9999 -9999 -9999 -9999 -9999 -9999 -9999 -9999 -9999 -9999 -9999 -9999 -9999 -9999
14.483 14.713 14.195 14.195 14.487 14.074 13.833 14.131 14.366 14.511 14.391 14.425 14.078 13.922 13.922 13.922 14.083 14.083 14.083 14.083 14.8 14.575 14.161 14.176 14.347 14.377 15.068 14.895 14.024 14.024 14.052 14.012 14.082 14.027 14.216 14.197 14.172 14.218 14.246 14.066 14.066 14.066 14.162 14.253 13.763 13.874 13.981 14.016 13.997 13.946 13.946 13.975 13.925 13.925 13.925 13.925 13.925 13.989 14.022 14.036 14.027 14.197 13.991 13.702 13.702 13.736 13.572 13.758 13.84 13.683 13.838 13.687 13.561 13.601 13.561 13.561 13.561 13.561 13.561 13.561 13.451 13.376 13.376 13.376 13.376 13.373 13.373 13.636 13.696 13.369 13.637 13.312 13.292 13.292 13.292 13.292 13.292 13.292 13.292 13.316 13.292 13.292 13.292 19.182 13.292 13.292 13.292 13.292 13.337 13.292 14.065 14.019 13.951 13.708 13.657 13.485 13.557 13.713 13.866 13.68 13.733 13.949 13.904 13.826 13.687 13.687 13.687 13.737 13.7 13.7 13.715 13.77 13.907 13.77 13.77 13.77 13.909 13.91 13.946 13.998 13.944 14.157 14.197 14.201 13.305 13.305 13.317 13.305 13.34 13.426 13.348 13.518 13.633 13.692 13.618 13.445 13.13 13.2 13.21 13.424 13.734 13.667 13.159 13.15 13.123 13.167 13.254 13.108 13.108 13.04 12.99 13.018 12.836 12.835 12.842 12.794 12.545 12.6 12.549 12.434 12.434 12.434 12.434 12.434 12.434 12.434 12.434 12.434 12.434 12.434 12.799 12.507 13.008 11.764 12.301 12.429 12.44 12.674 11.85 11.868 11.675 11.758 11.799 11.826 11.78 11.882 11.675 11.675 11.809 11.761 11.579 11.663 11.579 11.579 11.738 11.672 12.667 11.992 11.623 11.808 11.804 11.76 11.605 11.607 11.642 11.296 11.316 11.411 11.408 11.408 11.564 11.709 11.685 11.171 12.04 11.834 11.648 11.463 10.918 10.918 10.927 10.918 10.965 10.965 11.063 11.159 11.254 11.248 11.362 11.497 11.389 11.23 10.515 10.476 10.471 10.471 11.29 11.224 11.145 11.067 10.914 11.201 11.448 10.804 10.962 10.907 11.063 10.972 10.919 11.507 11.284 11.435 11.25 11.112 11.049 11.052 10.885 11.081 11.122 11.021 10.817 11.034 11.141 10.608 10.496 10.678 10.642 10.526 10.475 11.202 11.55 11.373 10.834 10.599 10.688 10.668 10.577 10.547 10.601 10.542 10.284 10.6 10.699 10.619 10.55 9.843 10.305 10.31 9.772 9.881 9.807 9.973 9.855 9.951 10.015 9.997 10.108 10.02 10.048 10.109 10.073 10.063 10.063 10.063 10.054 10.174 10.185 10.164 9.648 9.918 10.188 10.101 10.204 9.98 9.921 9.643 9.669 9.647 9.795 9.765 9.695 9.581 9.604 9.467 9.033 8.919 8.53 8.364 7.159 7.822 7.229 9.7 13.31 13.619 13.341 9.724 8.842 9.299 9.545 9.677 9.66 9.71 9.703 9.56 9.547 9.451 9.289 9.157 9.044 9.482 9.674 9.662 9.641 9.883 9.882 10.081 -9999 -9999 -9999 -9999 -9999 -9999 -9999 -9999 -9999 -9999 -9999 -9999 -9999 -9999 -9999 -9999 -9999 -9999 -9999 -9999 -9999 -9999 -9999 -9999 -9999 -9999 -9999 -9999 -9999 -9999 -9999 -9999 -9999 -9999 -9999 -9999 -9999 -9999 -9999 -9999 -9999 -9999 -9999 -9999 -9999 -9999 -9999 -9999 -9999 -9999 -9999 -9999 -9999 -9999 -9999 -9999 -9999 -9999 -9999 -9999 -9999 -9999 -9999 -9999 -9999 -9999 -9999 -9999 -9999 -9999 -9999 -9999 -9999 -9999 -9999 -9999 -9999 -9999 -9999 -9999 -9999 -9999 -9999 -9999 -9999 -9999 -9999 -9999 -9999 -9999 -9999 -9999 -9999 -9999 -9999 -9999 -9999 -9999 -9999 -9999 -9999 -9999
14.448 14.531 14.195 14.195 14.42 13.976 13.833 14.113 14.201 14.5 14.521 14.467 14.222 13.974 14.106 13.922 14.182 14.11 14.131 14.083 -9999 -9999 14.337 14.161 14.251 14.376 15.082 14.869 14.024 14.139 14.1 14.012 14.107 14.027 14.162 14.077 14.091 14.066 14.208 14.066 14.066 14.066 14.066 14.165 13.751 13.913 13.979 14.214 13.947 13.965 14.021 13.946 13.96 14.004 13.954 14.035 13.983 13.98 14.031 14.018 14.059 14.037 13.915 13.809 13.822 13.83 13.572 13.572 13.813 13.789 13.713 13.636 13.611 13.561 13.561 13.624 13.761 13.636 13.561 13.733 13.549 13.719 13.724 13.478 13.552 13.679 13.373 13.588 13.468 13.369 13.657 13.742 13.59 13.387 13.292 13.292 13.436 13.723 13.554 13.292 13.653 13.532 13.292 13.292 13.292 13.292 13.316 13.347 14.127 13.854 13.504 13.537 13.629 13.748 13.485 13.485 13.644 13.485 13.502 13.925 13.836 13.777 13.717 13.687 13.749 13.687 13.748 13.781 13.713 13.803 13.883 13.916 13.77 13.868 13.842 13.877 13.93 13.914 13.91 14.124 14.155 13.608 13.276 13.461 13.497 13.354 13.379 13.414 13.533 13.419 13.663 13.653 13.259 13.32 13.105 13.105 13.105 13.364 13.288 13.251 13.535 13.584 13.162 13.123 13.45 12.891 13.439 13.334 13.242 13.33 13.133 12.842 12.77 12.895 12.821 12.634 12.545 12.652 12.636 12.434 12.434 12.434 12.434 12.454 12.549 12.434 12.434 12.434 12.434 12.434 12.721 12.507 12.981 11.764 12.036 12.234 12.087 12.103 11.675 11.675 11.675 11.675 11.675 11.692 11.675 11.675 11.839 11.739 11.675 12.076 11.884 12.286 12.379 11.579 11.739 11.596 12.525 11.975 11.648 11.841 11.868 11.574 11.599 11.578 11.514 11.296 11.296 11.408 11.43 11.408 11.662 11.659 11.171 11.285 12.237 12.009 11.786 11.555 10.918 10.924 10.918 10.918 11.003 11.091 11.021 11.155 11.236 11.253 11.283 11.592 11.304 11.204 10.476 11.017 11.291 10.825 10.86 10.995 11.069 10.907 10.907 11.054 11.431 10.804 10.87 10.941 11.037 10.992 10.919 11.329 11.444 11.284 11.231 10.982 10.464 10.433 10.482 10.963 10.879 10.503 10.629 10.7 10.673 10.594 10.458 10.662 10.55 10.475 10.475 11.157 11.537 11.333 10.917 10.599 10.69 10.685 10.549 10.547 10.803 10.61 10.532 10.357 10.398 10.515 10.51 10.502 10.266 10.386 9.814 9.772 9.809 9.814 9.923 9.892 9.892 9.983 9.989 9.955 10.228 10.167 10.147 10.063 10.063 10.338 10.58 10.054 10.045 10.045 9.645 9.993 10.075 9.989 9.93 10.022 9.908 9.628 9.628 9.639 9.619 9.603 9.668 9.583 9.604 9.583 9.188 8.748 8.544 8.347 7.603 6.968 7.53 12.278 13.36 11.388 8.841 8.842 9.123 9.271 9.406 9.44 9.654 9.715 9.676 9.619 9.518 9.326 9.144 9.097 9.039 9.196 9.51 9.67 9.747 9.877 9.918 10.106 -9999 -9999 -9999 -9999 -9999 -9999 -9999 -9999 -9999 -9999 -9999 -9999 -9999 -9999 -9999 -9999 -9999 -9999 -9999 -9999 -9999 -9999 -9999 -9999 -9999 -9999 -9999 -9999 -9999 -9999 -9999 -9999 -9999 -9999 -9999 -9999 -9999 -9999 -9999 -9999 -9999 -9999 -9999 -9999 -9999 -9999 -9999 -9999 -9999 -9999 -9999 -9999 -9999 -9999 -9999 -9999 -9999 -9999 -9999 -9999 -9999 -9999 -9999 -9999 -9999 -9999 -9999 -9999 -9999 -9999 -9999 -9999 -9999 -9999 -9999 -9999 -9999 -9999 -9999 -9999 -9999 -9999 -9999 -9999 -9999 -9999 -9999 -9999 -9999 -9999 -9999 -9999 -9999 -9999 -9999 -9999 -9999 -9999 -9999 -9999 -9999 -9999
