ncols         486
nrows         32
xllcorner     283365
yllcorner     3288495
cellsize      30
NODATA_value  -9999
9.54 6.846 8.826 9.142 9.115 8.98 7.068 6.846 6.846 6.846 6.846 6.846 6.846 7.106 7.096 7.178 7.184 7.698 7.897 7.669 7.699 7.695 7.695 7.815 7.695 7.67 7.599 7.599 7.729 7.636 7.696 7.804 -9999 -9999 -9999 -9999 -9999 -9999 -9999 -9999 -9999 -9999 -9999 -9999 -9999 -9999 -9999 -9999 -9999 -9999 -9999 -9999 -9999 -9999 -9999 -9999 -9999 -9999 -9999 -9999 -9999 -9999 -9999 -9999 -9999 -9999 -9999 -9999 -9999 -9999 -9999 -9999 -9999 -9999 -9999 -9999 -9999 -9999 -9999 -9999 -9999 -9999 -9999 -9999 -9999 -9999 -9999 -9999 -9999 -9999 -9999 -9999 -9999 -9999 -9999 -9999 -9999 -9999 -9999 -9999 -9999 -9999 -9999 -9999 -9999 -9999 -9999 -9999 -9999 -9999 -9999 -9999 -9999 -9999 -9999 -9999 7.997 7.57 7.343 7.38 7.452 7.343 7.37 7.343 7.432 7.343 7.346 7.426 7.771 7.343 7.343 7.343 7.343 7.343 7.343 7.343 7.343 7.343 7.343 7.343 7.343 7.343 7.343 7.343 7.343 7.343 7.343 7.343 7.343 7.343 7.343 7.343 7.343 7.343 7.343 7.343 7.343 7.343 7.343 7.343 7.343 7.343 7.343 7.343 7.343 7.343 7.343 7.343 7.343 7.343 7.343 7.343 7.343 7.692 7.889 7.725 7.901 9.054 7.963 7.789 7.788 7.782 7.645 7.645 7.664 7.834 7.936 8.26 8.659 7.707 7.682 7.714 7.675 7.732 7.821 7.843 7.856 7.811 8.353 8.536 8.508 8.474 8.173 8.173 8.173 8.173 8.056 8.694 8.401 8.401 8.401 8.401 8.401 8.401 8.52 9.322 8.922 8.248 7.899 8.154 8.007 8.007 8.012 7.995 7.976 7.96 7.96 8.56 8.318 8.335 8.331 8.344 8.316 8.701 8.619 7.786 7.786 7.786 7.786 8.178 7.912 8.188 8.068 9.78 8.231 8.209 8.179 8.179 9.611 8.823 8.081 7.806 7.58 7.826 8.331 7.924 7.897 7.881 7.74 9.676 9.18 8.626 8.469 8.484 8.514 8.509 8.506 8.507 8.514 8.511 8.488 8.331 9.1 8.784 8.44 8.329 8.029 8.265 8.257 8.293 8.319 8.246 8.252 8.246 8.246 8.759 12.646 8.741 8.187 8.053 7.985 7.963 8.188 8.18 8.744 9.021 9.101 8.995 8.701 8.888 9.011 9.414 9.471 8.519 8.809 8.656 8.507 8.397 9.34 9.35 9.398 9.174 10.288 10.418 10.794 10.882 10.835 10.787 8.73 8.581 8.496 8.336 8.618 8.578 8.486 7.791 7.791 7.791 7.791 7.791 7.791 7.791 8.056 7.872 7.54 7.54 9.278 7.47 7.47 7.47 7.47 7.47 7.47 8.566 7.231 7.231 7.231 7.231 7.231 7.231 7.231 7.231 7.231 7.231 7.231 7.297 7.299 7.584 7.603 7.414 7.414 7.708 7.153 7.129 7.139 6.981 6.981 7.4 7.371 7.285 6.962 6.944 6.908 6.925 6.942 6.92 6.882 6.819 7.024 6.842 6.921 6.954 6.779 6.592 6.581 6.402 6.232 6.921 6.954 7.251 7.259 6.376 6.438 5.98 4.516 4.516 4.124 3.196 3.196 4.247 4.963 6.486 5.849 6.16 5.972 6.507 6.58 6.489 6.6 6.811 6.985 7.053 7.303 7.254 7.295 7.279 6.923 6.65 6.786 6.925 7.009 6.956 6.84 6.859 6.936 6.963 7.007 6.978 6.879 7.261 7.272 7.129 6.729 6.954 7.171 7.323 7.484 7.658 7.438 7.222 6.88 6.942 6.95 7.006 7.003 7.61 7.699 7.652 7.22 7.158 7.158 7.158 7.159 7.163 7.224 7.242 7.158 7.158 7.217 7.448 7.336 7.296 7.536 6.959 7.208 7.303 7.42 7.355 7.708 7.63 7.608 7.811 7.804 8.346 8.178 8.108 7.808 7.74 7.651 7.685 7.584 7.555 7.471 8.083 8.046 8.867
6.846 6.846 6.846 6.846 7.584 8.787 8.693 8.519 6.846 6.846 7.201 7.052 7.313 7.549 7.766 7.871 8.012 8.045 8.103 8.041 7.956 8.015 8.012 8.019 8.047 8.145 8.162 8.092 8.11 8.069 -9999 -9999 -9999 -9999 -9999 -9999 -9999 -9999 -9999 -9999 -9999 -9999 -9999 -9999 -9999 -9999 -9999 -9999 -9999 -9999 -9999 -9999 -9999 -9999 -9999 -9999 -9999 -9999 -9999 -9999 -9999 -9999 -9999 -9999 -9999 -9999 -9999 -9999 -9999 -9999 -9999 -9999 -9999 -9999 -9999 -9999 -9999 -9999 -9999 -9999 -9999 -9999 -9999 -9999 -9999 -9999 -9999 -9999 -9999 -9999 -9999 -9999 -9999 -9999 -9999 -9999 -9999 -9999 -9999 -9999 -9999 -9999 -9999 -9999 -9999 -9999 -9999 -9999 -9999 -9999 -9999 -9999 -9999 -9999 -9999 -9999 -9999 -9999 8.025 8.01 7.405 7.343 7.343 7.343 7.423 7.486 7.343 7.343 7.58 7.377 7.343 7.366 7.343 7.518 8.055 7.714 7.343 7.343 7.343 7.475 7.678 7.596 7.653 7.607 7.667 7.514 7.343 7.343 7.343 7.343 7.343 7.343 7.644 7.343 7.343 7.343 7.343 7.343 7.343 7.343 7.343 7.343 7.345 7.343 7.343 7.343 7.513 7.343 7.343 7.343 7.343 7.343 7.343 7.665 7.879 7.725 7.845 9.047 7.775 8.127 7.775 7.749 7.645 7.703 7.645 7.645 7.645 7.786 9.288 7.721 7.709 7.927 7.827 7.728 7.728 7.761 8.061 9.128 8.221 8.589 9.168 8.297 8.412 8.759 8.519 8.611 8.056 8.673 8.401 8.401 8.401 8.401 8.401 8.401 8.605 9.234 9.157 8.592 8.136 8.216 8.007 8.007 8.007 7.981 7.96 7.96 7.96 8.888 7.96 7.96 7.96 7.96 7.96 9.05 8.579 8.247 7.786 7.786 7.939 8.179 7.912 8.458 8.19 9.434 8.209 8.277 8.589 8.351 9.38 7.831 7.806 9.335 7.58 8.076 8.4 8.077 8 7.863 7.749 9.685 9.065 8.593 8.456 8.485 8.518 8.5 8.509 8.503 8.508 8.512 8.473 8.585 9.241 8.664 8.582 8.26 8.029 8.152 8.208 8.287 8.306 8.301 8.246 8.875 8.278 11.407 11.284 8.079 8.068 8.037 8 7.984 8.222 8.046 8.344 8.744 8.951 8.91 8.454 8.454 8.703 8.834 8.641 8.969 9.026 8.509 8.231 8.134 9.693 9.787 9.157 8.627 8.627 10.286 10.434 10.771 10.736 10.664 9.598 8.071 8.336 8.483 8.582 8.525 8.754 7.791 7.791 7.791 7.791 7.801 7.799 7.827 7.791 7.855 7.54 7.54 8.938 7.47 7.572 7.47 7.47 7.47 7.47 8.127 7.231 7.231 7.231 7.871 7.231 7.252 7.231 7.278 7.275 7.231 7.24 7.283 7.283 7.548 7.744 7.603 7.414 7.712 7.129 7.129 7.129 7.173 7.163 7.118 6.993 7.113 6.944 6.951 6.896 6.839 6.848 7.029 6.819 6.898 6.938 6.945 7.135 7.047 6.756 6.456 6.232 6.235 6.232 6.741 6.877 7.225 7.229 6.257 5.883 6.489 4.89 4.684 4.052 3.196 4.031 4.682 5.379 5.44 5.524 5.699 6.263 6.029 6.238 6.487 6.825 6.742 6.961 7.061 7.086 7.103 7.288 7.159 6.878 7.027 6.697 9.459 9.801 9.452 7.593 6.874 6.912 6.931 6.931 6.863 6.803 6.802 6.729 6.729 6.729 6.818 7.08 7.298 7.467 7.614 7.436 7.215 6.88 6.934 6.934 6.934 7.931 7.008 8.26 8.087 8.08 7.553 7.518 7.861 7.867 7.764 7.932 7.788 7.634 8.693 8.893 8.751 8.76 8.734 8.055 6.959 7.364 7.191 7.215 7.516 7.838 8.287 8.283 7.677 7.802 8.035 8.235 8.54 7.973 7.747 7.813 7.774 7.624 7.543 7.634 8.128 8.113 8.871
6.846 6.846 6.846 6.846 6.95 7.373 6.846 6.846 6.846 6.852 6.897 6.846 7.085 7.01 7.007 7.601 7.522 7.522 7.96 8.09 8.106 7.901 7.838 7.87 7.77 7.717 7.785 7.671 7.671 -9999 -9999 -9999 -9999 -9999 -9999 -9999 -9999 -9999 -9999 -9999 -9999 -9999 -9999 -9999 -9999 -9999 -9999 -9999 -9999 -9999 -9999 -9999 -9999 -9999 -9999 -9999 -9999 -9999 -9999 -9999 -9999 -9999 -9999 -9999 -9999 -9999 -9999 -9999 -9999 -9999 -9999 -9999 -9999 -9999 -9999 -9999 -9999 -9999 -9999 -9999 -9999 -9999 -9999 -9999 -9999 -9999 -9999 -9999 -9999 -9999 -9999 -9999 -9999 -9999 -9999 -9999 -9999 -9999 -9999 -9999 -9999 -9999 -9999 -9999 -9999 -9999 -9999 -9999 -9999 -9999 -9999 -9999 -9999 -9999 -9999 -9999 -9999 -9999 -9999 -9999 7.788 8.15 7.472 7.343 7.367 7.718 7.646 7.398 7.597 7.343 7.924 7.809 8.379 8.141 8.136 7.734 7.343 7.882 7.725 7.781 7.682 7.851 7.818 7.766 7.786 7.748 7.551 7.343 7.343 7.343 7.343 7.772 7.346 7.676 7.804 7.841 7.708 7.755 7.694 7.715 7.685 7.736 7.673 7.343 7.343 7.343 7.438 7.343 7.343 7.343 7.343 7.343 7.343 7.705 7.909 7.841 7.957 9.103 7.871 7.775 8.152 7.707 7.645 7.709 7.645 7.645 7.729 7.919 9.253 7.73 8.638 8.12 9.095 7.794 7.728 7.728 7.847 8.506 8.474 8.028 9.243 8.344 8.267 9.391 8.562 8.69 8.056 8.655 8.401 8.401 8.578 8.401 8.401 8.532 8.477 9.712 8.655 8.602 8.083 8.083 8.007 8.007 8.339 8.311 8.283 7.96 7.96 8.284 7.96 7.96 7.96 7.96 7.96 7.96 7.96 8.596 8.681 8.06 7.96 8.216 8.155 8.386 8.477 9.625 9.152 9.232 9.519 9.476 9.558 7.806 7.806 9.158 7.58 7.979 8.285 7.978 7.98 7.901 7.83 9.676 9.538 8.457 8.447 8.492 8.523 8.492 8.512 8.5 8.502 8.512 8.442 8.661 9.67 9.453 8.844 8.682 8.029 8.176 8.302 8.289 8.287 8.302 8.722 8.244 10.624 10.848 8.729 8.151 8.018 7.984 7.984 7.984 8.208 8.046 8.449 8.938 9.043 8.89 8.517 8.454 8.663 9.015 8.465 10.447 11.373 9.696 8.092 8.046 10.222 10.453 9.614 8.627 8.627 8.814 8.881 8.42 8.197 10.445 10.161 8.136 8.071 8.185 8.486 8.507 8.606 7.791 7.791 7.791 7.791 7.791 7.791 7.837 7.791 7.791 7.54 7.54 9.219 7.47 7.47 7.47 7.47 7.47 7.47 7.839 7.231 7.231 7.231 7.523 7.231 7.285 7.231 7.351 7.231 7.231 7.239 7.329 7.283 7.283 7.283 7.475 7.376 7.716 7.129 7.129 7.129 7.384 7.273 7.3 6.985 6.996 6.944 6.985 6.88 6.824 6.903 6.842 6.919 6.928 6.781 6.829 6.851 7.145 6.641 6.82 6.232 6.232 6.586 6.232 6.902 7.101 7.047 6.472 6.169 5.58 4.896 4.27 3.903 3.196 3.196 4.534 5.25 5.704 5.579 5.524 6.012 6.14 6.623 6.484 6.976 6.772 6.99 6.961 7.075 7.176 7.103 7.386 7.237 6.982 6.697 6.745 6.847 7.336 7.288 6.856 6.955 6.957 6.859 6.848 6.779 6.778 6.729 6.879 6.729 6.823 7 7.201 7.366 7.473 7.342 7.166 6.88 6.952 8.091 7.56 7.619 8.022 7.829 7.668 7.691 7.463 8.044 8.181 7.738 7.562 7.562 7.562 7.805 9.428 9.87 9.835 9.712 9.26 7.689 6.959 7.32 7.191 7.227 7.282 7.96 8.096 7.958 7.895 8.149 8.382 8.203 7.913 7.813 7.837 7.774 7.722 7.65 7.61 7.543 8.201 8.046 8.238
6.846 6.846 6.846 6.846 6.846 6.846 6.846 6.846 6.846 6.846 6.846 6.846 6.846 6.875 7.052 7.598 7.522 7.522 7.557 8.086 8.056 8.237 7.838 7.905 7.901 7.736 7.671 7.671 -9999 -9999 -9999 -9999 -9999 -9999 -9999 -9999 -9999 -9999 -9999 -9999 -9999 -9999 -9999 -9999 -9999 -9999 -9999 -9999 -9999 -9999 -9999 -9999 -9999 -9999 -9999 -9999 -9999 -9999 -9999 -9999 -9999 -9999 -9999 -9999 -9999 -9999 -9999 -9999 -9999 -9999 -9999 -9999 -9999 -9999 -9999 -9999 -9999 -9999 -9999 -9999 -9999 -9999 -9999 -9999 -9999 -9999 -9999 -9999 -9999 -9999 -9999 -9999 -9999 -9999 -9999 -9999 -9999 -9999 -9999 -9999 -9999 -9999 -9999 -9999 -9999 -9999 -9999 -9999 -9999 -9999 -9999 -9999 -9999 -9999 -9999 -9999 -9999 -9999 -9999 -9999 -9999 -9999 7.343 8.178 8.156 7.751 7.538 7.398 7.487 7.343 8.13 8.1 8.493 8.528 7.855 7.433 7.343 7.792 7.682 7.682 7.728 7.78 7.756 7.741 7.745 7.839 7.548 7.343 7.59 7.343 7.343 7.343 7.343 7.825 7.72 7.769 7.814 7.78 7.793 7.757 7.822 7.681 7.61 7.343 7.343 7.343 7.555 7.343 7.343 7.343 7.343 7.343 7.343 7.745 7.705 7.705 7.874 9.054 7.917 7.775 8.161 7.709 7.701 7.792 7.645 7.669 8.395 8.347 9.11 8.3 7.898 7.736 7.736 7.735 7.728 7.728 7.797 8.491 8.422 8.028 8.202 8.056 8.056 8.056 8.056 8.056 8.056 8.67 8.401 8.401 8.571 8.401 8.401 8.401 8.401 9.786 8.812 8.786 8.084 8.212 8.007 9.026 8.93 8.981 8.817 8.323 8.058 7.96 7.96 7.96 7.96 7.96 7.96 8.032 7.96 8.186 8.229 7.96 8.041 8.307 8.155 8.626 8.155 9.124 8.273 8.412 8.505 8.238 9.323 7.806 7.806 9.231 7.58 7.989 8.089 8.02 7.84 7.842 7.84 9.031 9 8.137 8.17 8.168 8.207 8.181 8.224 8.224 8.295 8.241 8.245 8.286 8.604 8.747 8.87 8.998 8.013 8.164 8.285 8.315 8.299 8.56 8.189 10.405 10.461 8.8 8.159 8.104 8.07 7.984 7.984 7.984 8.198 8.046 8.273 8.651 8.476 8.289 8.377 8.391 8.521 8.869 8.354 10.764 10.561 9.432 8.046 8.046 10.367 10.617 9.722 8.627 9.351 9.509 9.169 9.399 9.401 8.197 8.248 8.122 7.962 8.339 8.4 8.335 8.314 8.673 8.938 9.185 9.143 9.65 10.263 7.954 7.791 7.897 7.54 7.54 7.75 7.764 7.878 7.47 7.47 7.47 7.47 7.579 7.231 7.231 7.231 7.856 7.346 7.382 7.364 7.231 7.231 7.231 7.231 7.316 7.283 7.417 7.619 7.376 7.376 7.693 7.166 7.138 7.199 7.468 7.251 7.174 7.013 6.985 7.063 7.066 6.859 6.824 6.855 7.05 6.9 6.808 6.741 6.864 6.821 6.651 6.511 6.765 6.256 6.522 6.56 6.232 6.997 6.812 6.977 6.456 6.145 3.707 3.477 3.588 3.477 3.724 3.763 3.831 5.074 5.495 5.559 5.774 6.019 5.96 6.702 6.465 6.582 6.784 6.97 7.033 7.178 7.69 7.316 7.203 7.382 6.922 6.863 6.922 6.797 6.957 6.856 6.986 7.26 6.87 6.89 6.867 6.805 6.762 6.791 6.741 6.858 6.729 7.01 6.948 6.948 7.057 7.04 7.069 6.88 6.986 8.027 7.56 7.731 7.704 7.695 7.527 7.463 7.584 7.83 8.042 7.562 7.562 7.562 7.562 7.899 9.566 9.912 9.845 10.013 9.44 7.74 6.959 7.454 7.191 7.218 7.273 8.074 8.217 8.084 7.837 8.134 8.108 7.813 7.813 7.813 7.958 7.924 7.855 7.794 7.713 7.665 8.286 7.984 8.52
7.553 6.846 6.846 6.846 6.846 6.846 6.846 6.846 6.846 6.846 6.846 6.846 6.846 6.942 6.919 7.522 7.522 7.522 7.529 8.107 8.025 7.939 7.838 7.91 7.965 7.942 7.671 -9999 -9999 -9999 -9999 -9999 -9999 -9999 -9999 -9999 -9999 -9999 -9999 -9999 -9999 -9999 -9999 -9999 -9999 -9999 -9999 -9999 -9999 -9999 -9999 -9999 -9999 -9999 -9999 -9999 -9999 -9999 -9999 -9999 -9999 -9999 -9999 -9999 -9999 -9999 -9999 -9999 -9999 -9999 -9999 -9999 -9999 -9999 -9999 -9999 -9999 -9999 -9999 -9999 -9999 -9999 -9999 -9999 -9999 -9999 -9999 -9999 -9999 -9999 -9999 -9999 -9999 -9999 -9999 -9999 -9999 -9999 -9999 -9999 -9999 -9999 -9999 -9999 -9999 -9999 -9999 -9999 -9999 -9999 -9999 -9999 -9999 -9999 -9999 -9999 -9999 -9999 -9999 -9999 -9999 -9999 -9999 -9999 -9999 8.08 8.233 7.398 8.06 7.343 7.797 7.964 8.062 7.918 7.996 8.208 7.377 7.888 7.719 7.748 7.726 7.772 7.759 7.741 7.798 7.776 7.616 7.343 7.815 7.343 7.343 7.343 7.418 7.637 7.637 7.637 7.793 7.774 7.73 7.735 7.722 7.758 7.779 7.343 7.343 7.343 7.584 7.52 7.343 7.343 7.523 7.404 7.46 7.837 8.048 7.901 7.913 7.877 7.784 7.86 7.832 7.701 7.701 7.867 7.797 7.774 7.857 8.059 8.851 8.195 7.918 7.914 7.858 7.748 7.728 7.728 7.795 8.028 8.028 8.615 8.056 8.114 8.056 8.056 8.056 8.056 8.455 8.675 8.401 8.401 8.401 8.401 8.401 8.401 8.401 9.654 8.78 8.705 8.099 8.468 8.414 8.601 8.797 9.028 8.822 8.778 8.546 7.96 8.201 8.157 8.167 8.242 8.134 8.211 7.96 7.96 7.96 7.96 8.053 8.325 8.155 8.155 8.155 9.142 8.273 8.273 8.544 8.238 9.562 7.928 7.806 10.021 7.58 8.369 8.184 7.908 7.878 7.84 7.918 8.329 7.989 7.908 8.082 7.905 7.971 7.905 7.942 7.905 7.934 7.906 7.997 7.968 7.975 8.069 8.068 8.686 8.013 8.1 8.159 8.335 8.186 8.186 10.759 10.525 9.919 8.278 8.328 8.171 8.135 8.032 7.984 7.984 8.191 8.046 8.046 8.049 8.046 8.046 8.046 8.316 8.303 8.642 8.095 11.965 10.815 8.046 8.046 8.046 10.651 11.053 9.927 8.627 9.512 10.385 9.793 9.27 9.152 9.25 8.197 8.173 7.962 8.318 8.298 8.255 8.163 8.109 8.111 8.186 8.004 8.004 8.05 7.994 7.791 8.104 7.634 7.6 7.57 7.517 7.47 7.47 7.619 7.779 8.095 8.427 8.609 8.586 8.677 8.57 7.597 7.554 7.513 7.501 7.231 7.308 7.492 7.552 7.579 7.325 7.542 7.434 7.522 7.656 7.218 7.178 7.29 7.266 7.245 7.249 7.221 7.18 7.176 7.153 6.928 6.924 6.824 6.787 6.729 6.698 6.652 6.619 6.528 6.528 6.448 6.513 6.349 6.268 6.233 6.232 6.657 6.38 6.321 6.431 6.176 5.072 3.477 3.477 3.477 3.477 3.689 3.713 5.041 5.51 5.737 5.931 5.982 5.96 6.46 6.407 6.407 6.445 6.502 6.523 6.603 6.632 7.039 6.97 6.957 6.855 6.855 6.797 6.797 6.797 6.975 6.856 6.981 6.938 6.857 6.832 6.862 6.762 6.792 6.79 6.91 7.201 6.729 6.955 6.987 6.996 7.051 6.989 6.88 7.036 7.992 7.722 7.621 7.526 7.463 7.463 7.463 7.463 7.613 7.58 7.562 7.562 7.562 7.562 7.688 9.159 9.286 9.606 10.081 9.409 7.709 6.959 7.18 7.18 7.258 7.305 7.407 7.779 7.779 7.858 8.079 8.128 8.29 8.161 7.975 7.967 7.948 7.934 7.876 7.829 7.719 8.358 8.109 7.917
7.5 7.547 6.846 6.846 6.846 6.846 6.846 6.846 6.846 6.846 6.846 6.846 6.967 7.342 7.465 7.636 7.522 7.522 7.522 8.078 8.052 8.057 7.838 7.881 7.869 7.901 -9999 -9999 -9999 -9999 -9999 -9999 -9999 -9999 -9999 -9999 -9999 -9999 -9999 -9999 -9999 -9999 -9999 -9999 -9999 -9999 -9999 -9999 -9999 -9999 -9999 -9999 -9999 -9999 -9999 -9999 -9999 -9999 -9999 -9999 -9999 -9999 -9999 -9999 -9999 -9999 -9999 -9999 -9999 -9999 -9999 -9999 -9999 -9999 -9999 -9999 -9999 -9999 -9999 -9999 -9999 -9999 -9999 -9999 -9999 -9999 -9999 -9999 -9999 -9999 -9999 -9999 -9999 -9999 -9999 -9999 -9999 -9999 -9999 -9999 -9999 -9999 -9999 -9999 -9999 -9999 -9999 -9999 -9999 -9999 -9999 -9999 -9999 -9999 -9999 -9999 -9999 -9999 -9999 -9999 -9999 -9999 -9999 -9999 -9999 -9999 -9999 7.398 8.207 7.76 7.351 7.614 7.99 7.739 8.095 8.092 7.76 7.563 7.563 7.588 7.656 7.821 7.987 7.741 7.837 7.735 7.432 7.343 7.343 7.343 7.343 7.478 7.399 7.759 7.854 7.637 7.809 7.73 7.732 7.722 7.737 7.75 7.621 7.343 7.343 7.343 7.437 7.47 7.343 7.343 7.74 9.465 7.726 7.861 8.052 7.621 8.485 8.32 8.088 8.045 8.04 7.938 7.701 7.701 8.541 8.477 8.333 8.311 8.674 8.203 7.976 7.858 7.872 8.167 7.728 7.937 7.909 8.165 8.182 8.028 8.03 8.101 8.063 8.056 8.056 8.056 8.559 8.711 8.401 8.401 8.998 8.401 8.401 8.401 8.401 9.613 8.123 8.106 8.117 8.099 8.554 8.652 8.535 8.477 8.5 8.273 8.273 8.103 8.12 8.181 8.157 8.162 7.996 8.034 7.96 7.96 7.96 7.96 8.093 8.483 8.312 8.308 8.155 8.155 8.39 8.287 8.301 8.255 8.238 8.223 8.149 8.104 7.58 8.532 8.34 8.05 7.909 8.03 7.905 7.905 7.905 7.905 7.905 7.905 7.905 7.905 7.905 7.905 7.905 7.905 7.905 7.905 7.905 7.905 7.905 7.905 8.014 8.081 8.199 8.351 8.186 11.053 11.09 10.329 8.377 8.278 8.396 8.176 8.179 8.122 7.984 7.984 8.207 8.046 8.046 8.046 8.046 8.046 8.046 8.046 8.046 8.702 8.046 11.807 8.21 8.046 8.046 8.046 10.669 11.115 9.841 8.606 9.071 10.284 10.131 9.983 9.764 9.197 8.227 8.181 7.962 7.962 7.962 7.968 8.138 8.077 8.087 8.15 8.022 8.009 8.004 8.004 7.962 8.181 7.6 7.801 7.67 7.746 7.876 7.651 7.835 7.644 7.619 7.619 7.619 7.619 7.619 7.619 7.639 7.588 7.605 7.595 7.598 7.591 7.308 7.308 7.54 7.353 7.549 7.724 7.588 7.559 7.371 7.399 7.124 7.392 7.221 7.221 7.257 7.068 7.097 7.006 7.026 7.069 6.943 6.729 6.811 6.707 6.81 6.65 6.765 6.735 6.483 6.44 6.286 6.663 6.532 6.237 6.426 6.321 6.38 6.508 6.164 6.293 6.247 6.306 5.679 3.477 3.627 3.477 5.049 5.463 5.423 5.775 5.96 6.223 6.407 6.407 6.684 6.432 6.611 7.15 7.452 6.949 7.114 7.716 6.855 6.909 7.328 7.163 7.193 7.21 6.956 6.949 7.061 6.954 6.971 6.87 6.908 6.862 6.768 6.811 6.864 6.948 7.12 6.729 7.071 6.909 7.114 7.122 6.88 7 7.809 7.694 7.511 7.463 7.463 7.463 7.463 7.463 7.492 7.572 7.716 7.562 7.562 7.562 7.748 8.501 8.869 9.571 10.008 9.284 7.749 6.959 8.098 8.042 7.961 7.98 7.935 7.856 8.355 7.976 8.042 8.358 8.194 8.152 8.148 8.038 8.035 8.061 7.924 7.845 7.823 8.416 7.944 8.058
7.545 7.444 6.846 6.846 6.846 6.846 6.846 6.846 6.846 6.846 6.846 6.846 6.846 7.279 7.354 7.646 7.522 7.522 7.849 8.116 7.941 7.946 7.838 7.937 7.95 -9999 -9999 -9999 -9999 -9999 -9999 -9999 -9999 -9999 -9999 -9999 -9999 -9999 -9999 -9999 -9999 -9999 -9999 -9999 -9999 -9999 -9999 -9999 -9999 -9999 -9999 -9999 -9999 -9999 -9999 -9999 -9999 -9999 -9999 -9999 -9999 -9999 -9999 -9999 -9999 -9999 -9999 -9999 -9999 -9999 -9999 -9999 -9999 -9999 -9999 -9999 -9999 -9999 -9999 -9999 -9999 -9999 -9999 -9999 -9999 -9999 -9999 -9999 -9999 -9999 -9999 -9999 -9999 -9999 -9999 -9999 -9999 -9999 -9999 -9999 -9999 -9999 -9999 -9999 -9999 -9999 -9999 -9999 -9999 -9999 -9999 -9999 -9999 -9999 -9999 -9999 -9999 -9999 -9999 -9999 -9999 -9999 -9999 -9999 -9999 -9999 -9999 -9999 -9999 7.506 8.391 7.351 7.612 7.738 7.796 8.423 8.139 8.357 8.28 8.317 8.244 8.417 7.343 7.343 7.343 7.343 7.399 7.343 7.343 7.343 7.343 7.48 7.343 7.838 7.745 7.764 7.8 7.731 7.829 7.734 7.748 7.475 7.914 7.343 7.343 7.38 7.534 7.544 8.533 7.488 7.419 7.47 7.658 7.867 7.621 7.621 8.465 8.445 8.15 8.302 8.059 7.727 7.701 7.839 7.778 8.203 7.808 8.036 8.918 8.25 7.858 7.858 8.328 8.079 8.517 8.591 8.073 8.47 8.258 9.623 8.479 8.21 8.056 8.056 8.056 8.056 8.422 8.74 8.401 8.768 8.401 8.401 8.401 8.857 8.824 9.753 8.881 8.714 8.171 8.099 8.504 8.571 8.477 8.569 8.597 8.519 8.469 8.389 8.369 8.366 8.339 8.444 8.314 7.967 7.96 7.96 7.96 7.96 8.108 8.528 8.329 8.48 8.155 8.188 8.511 8.42 8.433 8.543 8.556 9.539 9.458 10.464 7.58 7.936 7.933 7.812 7.812 8.033 7.934 7.905 7.905 7.905 7.905 7.905 7.905 7.905 7.905 7.905 7.905 7.905 7.905 7.905 7.905 7.905 7.905 7.905 8.055 8.123 8.186 8.186 10.308 12.214 10.462 8.676 8.332 8.392 8.507 8.255 8.179 8.14 7.984 7.984 8.228 8.116 8.046 8.046 8.046 8.046 8.046 8.046 8.046 8.436 8.046 9.377 8.678 8.132 8.118 8.046 9.307 9.764 9.587 8.638 8.046 8.952 9.081 9.147 9.152 9.115 8.237 8.201 7.962 7.988 7.962 7.962 7.962 7.962 7.962 7.962 7.962 8.104 7.962 7.976 7.962 8.112 7.6 7.613 7.713 7.717 7.688 7.654 7.644 7.681 7.619 7.619 7.619 7.619 7.619 7.619 7.67 7.579 7.561 7.582 7.44 7.473 7.44 7.568 7.531 7.435 7.489 7.731 7.606 7.494 7.474 7.471 7.124 7.442 7.221 7.365 7.311 7.008 7.006 7.006 7.059 7.255 6.91 6.775 6.808 6.707 6.722 6.662 6.63 6.909 6.521 6.579 6.433 6.597 6.57 6.368 6.349 6.321 6.328 6.568 6.337 6.269 6.206 5.878 4.787 6.096 3.477 3.477 5.295 5.049 5.599 5.571 5.875 6.279 6.408 6.407 6.599 6.761 6.756 6.611 6.611 7.025 7.264 7.574 6.855 7.045 7.329 7.278 7.285 7.217 6.95 6.949 7.182 6.89 6.936 6.94 6.865 6.827 6.973 7.161 6.959 6.882 7.05 7.114 6.729 7.124 6.969 6.991 6.88 6.997 7.807 7.774 7.59 7.463 7.463 7.463 7.463 7.463 7.56 7.675 7.827 7.562 7.562 7.562 8.022 8.232 8.935 9.642 9.992 9.333 7.844 6.959 7.723 8.008 7.775 7.829 7.919 8.069 8.196 7.976 8.04 8.227 8.318 8.158 8.184 8.029 8.029 8.007 7.896 7.873 7.904 8.432 8.753 8.742
7.481 7.479 6.846 6.846 6.846 6.846 6.846 6.846 6.846 6.846 7.7 6.846 6.939 7.293 7.378 7.624 8.025 7.989 7.829 8.007 7.997 7.915 7.838 7.98 -9999 -9999 -9999 -9999 -9999 -9999 -9999 -9999 -9999 -9999 -9999 -9999 -9999 -9999 -9999 -9999 -9999 -9999 -9999 -9999 -9999 -9999 -9999 -9999 -9999 -9999 -9999 -9999 -9999 -9999 -9999 -9999 -9999 -9999 -9999 -9999 -9999 -9999 -9999 -9999 -9999 -9999 -9999 -9999 -9999 -9999 -9999 -9999 -9999 -9999 -9999 -9999 -9999 -9999 -9999 -9999 -9999 -9999 -9999 -9999 -9999 -9999 -9999 -9999 -9999 -9999 -9999 -9999 -9999 -9999 -9999 -9999 -9999 -9999 -9999 -9999 -9999 -9999 -9999 -9999 -9999 -9999 -9999 -9999 -9999 -9999 -9999 -9999 -9999 -9999 -9999 -9999 -9999 -9999 -9999 -9999 -9999 -9999 -9999 -9999 -9999 -9999 -9999 -9999 -9999 -9999 -9999 8.191 7.365 7.71 8.812 7.785 7.817 7.682 7.819 8.034 7.877 7.697 7.343 7.343 7.343 7.343 7.343 7.343 7.343 7.343 7.343 7.476 7.343 7.627 8.16 7.767 7.745 7.752 7.82 7.878 7.801 7.725 7.475 7.343 7.343 7.47 7.343 7.706 7.567 7.496 7.419 7.551 7.603 7.777 7.621 7.621 7.711 7.836 7.709 7.962 7.819 7.754 8.341 7.752 7.901 7.808 7.935 8.15 8.204 8.114 8.096 8.001 8.169 8.028 8.028 8.057 8.104 8.276 8.333 11.258 8.584 8.333 8.056 8.056 8.484 8.437 8.06 8.783 8.401 8.714 8.401 8.476 8.511 8.151 8.824 9.766 8.853 8.853 8.101 8.341 8.396 8.484 8.472 8.558 8.562 8.604 8.579 8.33 8.33 8.318 8.314 8.343 8.282 7.96 7.96 7.96 7.96 7.989 8.162 8.561 8.391 8.446 8.418 8.406 8.417 8.408 8.702 8.576 9.323 9.504 9.423 10.5 7.58 8.69 8.19 7.812 7.812 7.827 7.925 8.181 8.199 8.345 8.531 8.42 8.242 8.051 8.161 8.304 8.209 8.128 8.134 8.253 8.391 8.149 8.259 8.369 8.113 8.318 9.406 9.858 13.751 11.859 10.046 9.85 8.325 8.307 8.205 8.196 8.129 8.16 8.098 7.984 8.247 8.046 8.262 8.046 8.046 8.046 8.046 8.046 8.046 8.046 8.046 8.046 8.046 8.046 8.046 8.046 8.046 8.046 8.046 8.046 8.046 8.13 8.25 8.322 8.33 8.313 8.258 8.149 7.962 7.962 7.962 7.962 7.962 7.962 7.962 7.962 7.962 7.962 7.962 7.962 8.045 8.272 7.6 7.71 7.732 7.711 7.744 7.65 7.736 7.703 7.737 7.693 7.637 7.809 7.796 7.619 7.766 7.758 7.791 7.561 7.498 7.44 7.507 7.466 7.484 7.444 7.435 7.468 7.58 7.351 7.463 7.404 7.124 7.379 7.228 7.304 7.394 7.058 7.04 7.055 7.081 7.127 7.011 6.795 6.767 6.768 6.826 6.696 6.67 6.577 6.526 6.533 6.472 6.746 6.502 6.324 6.367 6.544 6.321 6.489 6.34 6.255 6.355 5.916 4.48 6.224 3.477 3.477 5.259 5.492 5.049 5.664 5.905 6.137 6.48 6.407 7.485 7.869 6.611 6.611 6.611 7.091 7.169 6.855 7.429 7.08 7.225 7.177 7.212 7.083 6.949 6.96 7.112 7.021 6.89 6.89 7.026 6.915 6.914 6.949 7.069 6.908 6.943 7.017 6.848 6.88 7.014 7.006 6.88 7.044 7.826 7.721 7.533 7.463 7.463 7.463 7.463 7.463 7.463 7.494 7.81 7.562 7.562 7.562 8.139 7.891 8.635 9.553 9.733 9.172 7.752 6.959 8.013 8.066 7.436 7.802 8.033 8.333 8.143 7.976 8.223 8.075 8.179 8.177 8.3 8.211 8.059 8.047 7.983 8.237 7.976 8.465 8.686 8.666
7.301 6.846 6.846 6.846 6.846 6.846 6.846 6.846 6.846 6.846 7.098 7.015 7.474 7.46 7.454 7.553 8.068 8.108 7.942 8.03 7.908 7.838 8.001 7.887 -9999 -9999 -9999 -9999 -9999 -9999 -9999 -9999 -9999 -9999 -9999 -9999 -9999 -9999 -9999 -9999 -9999 -9999 -9999 -9999 -9999 -9999 -9999 -9999 -9999 -9999 -9999 -9999 -9999 -9999 -9999 -9999 -9999 -9999 -9999 -9999 -9999 -9999 -9999 -9999 -9999 -9999 -9999 -9999 -9999 -9999 -9999 -9999 -9999 -9999 -9999 -9999 -9999 -9999 -9999 -9999 -9999 -9999 -9999 -9999 -9999 -9999 -9999 -9999 -9999 -9999 -9999 -9999 -9999 -9999 -9999 -9999 -9999 -9999 -9999 -9999 -9999 -9999 -9999 -9999 -9999 -9999 -9999 -9999 -9999 -9999 -9999 -9999 -9999 -9999 -9999 -9999 -9999 -9999 -9999 -9999 -9999 -9999 -9999 -9999 -9999 -9999 -9999 -9999 -9999 -9999 -9999 -9999 8.165 8.133 7.905 7.703 7.682 7.862 8.076 8.222 8.103 7.806 7.942 8.235 8.353 8.496 7.382 7.343 7.594 7.377 7.343 7.422 7.343 7.527 8.655 8.753 7.771 7.608 7.811 7.857 7.794 7.661 7.343 7.343 7.343 7.413 7.343 7.93 8.058 7.419 7.419 7.491 8.07 7.973 7.955 7.917 7.621 7.621 7.621 7.928 7.66 7.707 7.787 7.809 7.774 7.903 7.87 7.944 7.951 7.951 8.047 8.088 8.1 8.085 8.028 8.41 8.057 8.313 9.469 8.525 8.263 8.083 8.128 8.17 8.056 8.613 9.247 8.793 9.22 9.551 9.651 9.616 9.417 8.67 8.151 9.846 8.548 8.663 8.156 8.101 8.357 8.472 8.676 8.602 8.569 8.348 8.896 8.17 8.204 8.238 8.258 8.204 8.217 8.667 7.96 7.96 7.96 8.013 8.119 8.482 8.224 8.41 8.22 8.137 8.238 8.48 8.64 8.495 9.806 9.526 9.423 10.248 7.58 8.664 8.352 7.824 7.812 7.812 7.934 8.419 8.963 8.738 8.835 8.862 8.751 8.28 8.298 8.37 8.575 8.459 8.552 8.627 8.578 8.49 8.456 8.349 8.113 8.974 9.747 14.463 13.629 10.148 9.769 9.016 8.326 8.332 8.251 8.169 8.129 8.225 7.984 7.984 8.25 8.046 8.255 8.046 8.046 8.046 8.046 8.046 8.046 8.046 8.323 8.261 8.046 8.046 8.046 8.046 8.046 8.046 8.046 8.046 8.046 8.057 8.236 8.348 8.359 8.371 8.284 8.209 7.962 8.153 7.962 7.962 7.962 7.962 7.962 7.962 7.962 7.962 7.962 7.99 8.134 8.058 7.6 7.756 7.706 7.69 7.73 7.722 7.822 7.794 7.708 7.743 7.728 7.727 7.748 7.619 7.665 7.848 7.777 7.465 7.44 7.44 7.44 7.44 7.462 7.44 7.435 7.436 7.547 7.531 7.351 7.358 7.124 7.178 7.154 7.176 7.196 7.04 7.04 7.092 7.129 7.196 7.059 6.802 6.88 6.767 6.825 6.621 6.579 6.778 6.586 6.597 6.534 6.768 6.496 6.279 6.318 6.647 6.321 6.354 6.279 6.283 6.327 6.354 4.48 4.48 3.477 3.621 5.108 5.876 5.049 5.049 5.864 6.171 6.547 6.407 7.747 7.18 7.377 7.351 7.275 6.956 7.323 6.855 7.423 7.029 7.215 7.178 7.169 7.148 6.965 6.974 7.179 7.008 7.032 6.941 6.948 6.914 6.924 6.926 6.986 7.021 7.156 7.005 6.855 7.031 6.88 6.923 6.88 6.965 7.611 7.719 7.495 7.463 7.463 7.463 7.463 7.463 7.52 7.784 8.088 7.655 7.644 7.562 7.802 7.818 7.818 7.929 7.873 7.924 7.656 6.959 7.921 8 7.436 7.493 8.154 7.994 8.272 8.138 8.207 8.889 9.248 8.327 8.314 8.232 7.983 7.983 7.983 8.214 7.976 8.512 8.622 8.583
6.846 6.846 6.846 6.846 6.846 6.846 6.846 6.846 6.846 6.935 6.978 7.066 7.435 7.667 7.761 7.547 8.101 8.026 8.048 8.043 8.004 7.838 8.329 -9999 -9999 -9999 -9999 -9999 -9999 -9999 -9999 -9999 -9999 -9999 -9999 -9999 -9999 -9999 -9999 -9999 -9999 -9999 -9999 -9999 -9999 -9999 -9999 -9999 -9999 -9999 -9999 -9999 -9999 -9999 -9999 -9999 -9999 -9999 -9999 -9999 -9999 -9999 -9999 -9999 -9999 -9999 -9999 -9999 -9999 -9999 -9999 -9999 -9999 -9999 -9999 -9999 -9999 -9999 -9999 -9999 -9999 -9999 -9999 -9999 -9999 -9999 -9999 -9999 -9999 -9999 -9999 -9999 -9999 -9999 -9999 -9999 -9999 -9999 -9999 -9999 -9999 -9999 -9999 -9999 -9999 -9999 -9999 -9999 -9999 -9999 -9999 -9999 -9999 -9999 -9999 -9999 -9999 -9999 -9999 -9999 -9999 -9999 -9999 -9999 -9999 -9999 -9999 -9999 -9999 -9999 -9999 -9999 -9999 8.445 7.536 7.709 7.676 8.016 8.191 8.222 7.929 7.589 7.589 7.911 8.424 8.535 7.386 7.766 7.714 7.364 7.356 7.343 7.391 7.515 7.824 7.669 7.751 7.45 7.634 7.594 7.659 7.343 7.343 7.343 7.355 7.343 7.401 7.945 7.465 7.444 7.435 7.53 7.498 7.498 7.498 7.621 7.621 7.621 7.621 9.307 7.66 8.244 7.982 7.775 7.969 7.863 7.863 7.863 7.969 7.951 7.995 8.131 8.092 8.163 8.028 8.111 8.767 8.354 8.184 8.184 8.184 9.066 8.881 8.79 8.576 8.593 8.613 8.824 8.151 8.151 8.151 8.324 8.151 8.151 8.151 8.253 8.582 8.541 8.101 8.12 8.615 8.953 8.907 8.889 8.757 8.145 8.145 8.145 8.145 8.174 8.164 8.087 8.087 8.087 7.96 7.96 7.96 7.96 8.126 8.516 8.224 8.243 8.137 8.137 8.137 8.344 7.944 7.974 8.228 7.944 7.944 7.615 7.58 7.812 7.812 7.812 7.812 7.84 7.935 8.342 8.938 8.995 9.005 9.014 9.035 8.28 8.28 8.439 8.608 8.604 8.712 8.716 8.804 8.825 8.855 8.515 8.686 9.857 11.884 15.429 12.218 9.563 8.844 8.337 8.38 8.362 8.257 8.338 8.124 8.124 7.984 7.984 8.297 8.046 8.083 8.061 8.046 8.046 8.046 8.046 8.046 8.046 8.389 8.138 8.046 8.046 8.046 8.046 8.046 8.046 8.046 8.046 8.046 8.087 8.188 8.444 8.347 8.365 8.263 8.229 7.962 8.02 7.962 7.962 7.962 7.962 7.962 7.962 7.962 7.962 7.962 8.176 8.233 8.041 7.6 7.667 7.69 7.778 7.769 7.746 7.81 7.788 7.758 7.763 7.761 7.79 7.72 7.619 7.619 7.659 7.516 7.44 7.44 7.44 7.517 7.44 7.44 7.476 7.494 7.478 7.554 7.186 7.311 7.341 7.124 7.167 7.19 7.144 7.171 7.04 7.296 7.147 7.092 7.333 7.132 6.84 6.954 6.846 6.863 6.778 6.956 6.871 6.653 6.572 6.542 6.789 6.659 6.4 6.279 6.279 6.321 6.371 6.279 6.285 6.643 7.785 5.443 5.35 7.259 3.477 4.771 5.441 5.439 5.595 6.138 6.266 6.453 6.498 7.296 7.304 7.293 7.36 7.121 6.956 7.293 6.855 7.425 7.029 7.201 7.211 7.257 7.181 6.965 6.965 7.144 7.027 7.07 6.955 6.954 6.974 6.914 6.956 6.926 7.044 7.119 7.014 6.855 7.063 7.074 6.88 6.88 6.925 7.789 7.463 7.463 7.463 7.463 7.463 7.463 7.463 7.463 7.814 7.73 7.498 7.498 7.612 7.498 8.285 8.29 8.292 10.361 7.656 7.74 6.959 7.63 7.436 7.556 7.994 7.995 7.768 7.768 7.981 8.034 8.844 9.351 8.282 8.324 8.227 8.258 8.035 8.162 8.066 8.105 8.569 8.655 8.665
6.846 6.846 6.846 6.846 6.846 6.846 6.846 6.846 6.926 7.796 7.313 7.355 7.93 8.156 8.14 7.716 8.057 8.128 8.136 8.006 7.976 7.838 7.954 -9999 -9999 -9999 -9999 -9999 -9999 -9999 -9999 -9999 -9999 -9999 -9999 -9999 -9999 -9999 -9999 -9999 -9999 -9999 -9999 -9999 -9999 -9999 -9999 -9999 -9999 -9999 -9999 -9999 -9999 -9999 -9999 -9999 -9999 -9999 -9999 -9999 -9999 -9999 -9999 -9999 -9999 -9999 -9999 -9999 -9999 -9999 -9999 -9999 -9999 -9999 -9999 -9999 -9999 -9999 -9999 -9999 -9999 -9999 -9999 -9999 -9999 -9999 -9999 -9999 -9999 -9999 -9999 -9999 -9999 -9999 -9999 -9999 -9999 -9999 -9999 -9999 -9999 -9999 -9999 -9999 -9999 -9999 -9999 -9999 -9999 -9999 -9999 -9999 -9999 -9999 -9999 -9999 -9999 -9999 -9999 -9999 -9999 -9999 -9999 -9999 -9999 -9999 -9999 -9999 -9999 -9999 -9999 -9999 -9999 7.712 7.536 7.536 7.595 8.126 8.29 8.203 7.61 7.589 7.589 7.589 8.094 8.492 7.35 7.343 7.343 7.343 7.343 7.478 7.518 7.46 7.42 7.475 7.406 7.421 7.425 7.343 7.343 7.343 7.343 7.343 7.343 7.557 7.65 7.404 7.554 7.518 7.485 7.449 7.777 7.65 7.78 7.676 7.645 7.621 7.632 7.652 8.292 7.831 7.934 7.811 7.898 8.085 8.038 7.981 7.972 7.972 8.072 8.173 8.202 8.028 8.647 8.697 8.212 8.184 8.184 8.184 8.228 9.214 8.934 9.12 9.254 9.168 8.909 8.779 8.151 8.151 8.203 8.253 8.327 8.151 8.154 8.151 8.581 8.527 8.101 8.101 8.101 8.101 8.101 8.101 8.104 8.51 8.252 8.283 8.23 8.215 8.296 8.23 8.22 8.494 7.96 7.96 7.96 7.96 8.244 8.396 8.137 8.137 8.137 8.187 9.733 8.218 8.13 7.944 7.944 8.206 8.154 9.526 7.58 8.566 8.241 7.852 7.812 7.812 7.912 8.162 8.886 8.962 8.96 9.004 8.823 8.28 8.391 8.714 8.707 9.135 9.263 8.965 8.854 8.81 8.696 8.503 8.503 9.272 8.503 8.503 9.063 9.527 8.822 8.326 8.361 8.368 8.22 8.27 8.138 8.16 8.107 7.984 8.309 8.046 8.102 8.136 8.126 8.046 8.046 8.046 8.046 8.263 8.454 8.207 8.046 8.046 8.046 8.046 8.046 8.046 8.046 8.046 8.046 8.083 8.092 8.212 8.254 8.3 8.264 8.185 7.962 7.962 7.962 7.962 7.962 7.962 7.962 7.962 7.962 7.962 7.962 8.303 8.495 8.198 7.984 7.88 7.7 7.72 7.73 7.731 7.761 7.779 7.731 7.731 7.731 7.803 7.833 7.646 7.666 7.656 7.772 7.601 7.478 7.44 7.475 7.44 7.478 7.44 7.45 7.468 7.523 7.167 7.227 7.152 7.099 7.134 7.362 7.106 7.148 7.04 7.373 7.179 7.108 7.369 7.176 6.883 6.891 7.059 7.06 6.832 7.099 7.154 6.74 6.737 6.542 6.803 6.803 6.384 6.428 6.487 6.279 6.279 6.279 6.338 7.02 7.02 7.02 8.016 7.276 4.503 4.887 5.352 5.495 5.291 5.9 5.919 6.39 6.241 7.299 7.286 7.298 7.178 6.99 6.956 7.425 6.982 6.992 6.982 6.982 6.982 7.167 7.244 7.029 7.037 7.13 7.155 7.042 6.976 6.96 7.027 6.921 7.037 6.981 6.991 7.116 7.049 6.93 7.045 7.06 7.176 6.88 7.021 7.995 7.463 7.464 7.463 7.463 7.463 7.463 7.463 7.463 7.77 7.794 7.498 7.498 7.498 7.498 8.289 8.303 8.272 9.089 10.566 7.676 7.391 7.436 7.524 7.703 7.899 7.768 7.768 8.243 7.768 8.063 8.786 9.319 8.19 8.39 8.227 8.336 8.352 8.228 8.066 8.066 8.626 8.702 8.609
6.846 6.846 6.846 6.846 6.846 6.846 6.846 6.846 6.87 8.027 7.313 7.313 7.962 8.051 8.056 7.698 8.042 8.122 8.018 8.095 8.072 7.838 7.838 -9999 -9999 -9999 -9999 -9999 -9999 -9999 -9999 -9999 -9999 -9999 -9999 -9999 -9999 -9999 -9999 -9999 -9999 -9999 -9999 -9999 -9999 -9999 -9999 -9999 -9999 -9999 -9999 -9999 -9999 -9999 -9999 -9999 -9999 -9999 -9999 -9999 -9999 -9999 -9999 -9999 -9999 -9999 -9999 -9999 -9999 -9999 -9999 -9999 -9999 -9999 -9999 -9999 -9999 -9999 -9999 -9999 -9999 -9999 -9999 -9999 -9999 -9999 -9999 -9999 -9999 -9999 -9999 -9999 -9999 -9999 -9999 -9999 -9999 -9999 -9999 -9999 -9999 -9999 -9999 -9999 -9999 -9999 -9999 -9999 -9999 -9999 -9999 -9999 -9999 -9999 -9999 -9999 -9999 -9999 -9999 -9999 -9999 -9999 -9999 -9999 -9999 -9999 -9999 -9999 -9999 -9999 -9999 -9999 -9999 7.644 8.367 7.536 7.536 8.328 8.147 7.852 7.589 7.589 7.589 7.589 8.083 8.473 7.343 7.343 7.343 7.343 7.343 7.452 7.476 7.375 7.375 7.375 7.357 7.343 7.343 7.343 7.343 7.343 7.447 7.581 7.343 7.566 7.637 7.545 7.43 7.438 7.5 7.499 7.585 7.687 7.653 7.645 7.992 8.043 7.773 7.964 7.818 7.979 8.039 7.811 7.897 7.905 7.93 8.009 7.868 7.947 7.951 7.99 7.906 8.078 8.026 8.606 8.279 8.488 8.184 8.184 8.184 9.028 8.64 9.313 9.48 9.483 8.99 8.785 8.151 8.151 8.151 8.151 8.151 8.151 8.226 8.151 8.407 8.101 8.101 8.129 8.101 8.101 8.101 8.101 8.278 8.492 8.318 8.287 8.244 8.222 8.31 8.241 8.201 7.96 7.96 7.96 7.96 7.96 8.069 8.433 8.137 8.538 8.557 8.137 9.761 8.292 8.471 7.944 7.967 8.322 8.145 9.497 7.58 8.032 8.152 7.93 7.812 7.853 7.871 8.428 8.92 8.929 8.973 9.016 8.6 8.28 8.404 8.81 8.842 9.346 9.342 9.066 8.907 8.71 8.503 8.751 9.357 8.503 8.892 8.822 9.475 9.4 8.665 8.3 8.303 8.294 8.198 8.258 8.138 8.191 8.241 8.044 8.316 8.046 8.046 8.097 8.223 8.046 8.046 8.046 8.046 8.046 8.046 8.046 8.046 8.046 8.046 8.046 8.046 8.046 8.046 8.046 8.046 8.046 8.046 8.15 8.204 8.229 8.166 8.193 7.962 8.187 7.962 7.962 7.962 7.962 7.962 7.962 7.962 7.962 7.962 8.401 8.384 8.07 7.965 7.87 7.757 7.7 7.787 7.769 7.731 7.783 7.731 7.74 7.731 7.765 7.734 7.696 7.719 7.672 7.514 7.506 7.51 7.513 7.466 7.496 7.492 7.471 7.485 7.518 7.542 7.169 7.042 7.042 7.208 7.098 7.083 7.085 7.04 7.04 7.687 7.364 7.251 7.293 7.214 6.911 6.967 7.005 6.998 6.832 7.21 7.13 6.65 6.79 6.583 6.785 6.76 6.284 6.284 6.279 6.368 6.303 6.283 6.307 7.02 7.02 7.02 7.253 5.034 7.089 4.722 4.883 5.291 5.72 5.948 6.061 6.241 6.316 7.264 6.956 6.956 6.956 6.956 6.974 7.307 6.982 6.982 7.041 7.119 7.017 6.982 7.145 7.138 7.467 7.236 7.14 7.015 7.023 6.963 6.925 7.011 6.945 7.03 7.064 7.362 7.121 6.93 7.089 7.14 7.017 6.88 7.088 7.813 7.463 7.463 7.463 7.463 7.463 7.463 7.463 7.463 7.715 7.771 7.498 7.498 7.498 7.589 8.309 8.265 8.279 8.634 9.376 7.711 7.437 7.624 7.728 7.837 7.759 8.067 8.066 8.447 7.768 8.052 8.138 8.19 8.203 8.255 8.271 8.266 8.27 8.284 8.363 8.243 8.669 8.777 8.57
6.846 6.846 6.846 6.846 6.846 6.846 6.957 6.846 6.866 8.021 7.313 7.313 8.048 8.007 8 7.698 8.103 8.06 7.96 8.005 8.032 7.838 7.89 -9999 -9999 -9999 -9999 -9999 -9999 -9999 -9999 -9999 -9999 -9999 -9999 -9999 -9999 -9999 -9999 -9999 -9999 -9999 -9999 -9999 -9999 -9999 -9999 -9999 -9999 -9999 -9999 -9999 -9999 -9999 -9999 -9999 -9999 -9999 -9999 -9999 -9999 -9999 -9999 -9999 -9999 -9999 -9999 -9999 -9999 -9999 -9999 -9999 -9999 -9999 -9999 -9999 -9999 -9999 -9999 -9999 -9999 -9999 -9999 -9999 -9999 -9999 -9999 -9999 -9999 -9999 -9999 -9999 -9999 -9999 -9999 -9999 -9999 -9999 -9999 -9999 -9999 -9999 -9999 -9999 -9999 -9999 -9999 -9999 -9999 -9999 -9999 -9999 -9999 -9999 -9999 -9999 -9999 -9999 -9999 -9999 -9999 -9999 -9999 -9999 -9999 -9999 -9999 -9999 -9999 -9999 -9999 -9999 -9999 7.73 7.911 7.536 7.536 8.465 8.181 7.856 7.589 7.589 7.779 8.328 8.573 8.502 7.343 7.343 7.343 7.381 7.343 7.343 7.503 7.556 7.522 7.511 7.507 7.343 7.343 7.343 7.343 7.343 7.343 7.343 7.422 7.47 7.78 7.43 7.615 7.578 7.565 7.569 7.651 7.8 8.102 7.899 7.973 7.95 7.948 7.773 7.852 7.905 7.811 7.811 7.858 7.834 7.892 7.848 7.847 7.847 7.859 7.859 7.859 8.026 8.026 8.026 8.188 8.557 8.532 8.184 8.184 8.192 8.627 9.161 9.337 9.304 9.036 8.803 8.523 8.363 8.352 8.219 8.151 8.151 8.151 8.151 9.675 11.789 8.101 8.146 8.101 8.101 8.101 8.101 8.318 8.474 8.29 8.274 8.251 8.236 8.315 8.244 8.203 7.96 7.96 7.96 7.96 7.96 8.016 8.414 8.137 8.137 8.137 8.137 9.636 8.183 8.206 7.944 8.105 8.042 8.082 9.625 7.58 8.638 8.333 7.875 7.884 7.965 7.861 8.491 8.982 8.942 8.985 8.797 8.377 8.28 8.393 8.787 8.736 9.175 9.181 9.251 8.89 8.727 8.503 8.608 9.444 8.503 8.605 8.977 8.822 8.9 8.454 9.085 8.279 8.235 8.198 8.198 8.304 8.392 8.304 8.08 8.366 8.051 8.11 8.14 8.046 8.046 8.046 8.046 8.046 8.046 8.046 8.046 8.046 8.046 8.046 8.046 8.046 8.046 8.046 8.046 8.112 8.154 8.126 8.046 7.969 7.969 7.969 7.962 8.013 8.191 7.981 8.126 8.046 8.004 8.079 8.12 8.075 8.109 8.131 8.305 8.505 8.084 7.928 7.913 7.719 7.7 7.726 7.809 7.831 7.775 7.777 7.802 7.72 7.72 7.739 7.664 7.664 7.795 7.496 7.53 7.496 7.513 7.498 7.493 7.506 7.48 7.486 7.513 7.474 7.135 7.541 7.042 7.042 7.15 7.141 7.083 7.18 7.04 7.72 7.18 7.275 7.294 7.185 6.911 7.154 6.964 6.988 6.832 7.16 7.199 6.719 6.583 6.583 6.748 6.76 6.284 6.29 6.279 6.279 6.279 6.279 6.332 7.02 7.02 7.02 7.128 5.04 5.023 5.595 5.735 5.89 5.897 6.143 6.089 6.221 6.221 7.341 7.284 7.314 7.209 6.956 6.969 7.33 6.982 6.982 6.982 7 6.988 7.087 7.221 7.286 7.867 7.178 7.188 7.14 7.125 6.962 6.946 6.996 7.057 7.201 7.253 7.234 7.44 7.001 7.117 7.142 7.1 6.88 7.005 7.704 7.546 7.463 7.463 7.463 7.463 7.463 7.463 7.465 7.778 7.797 7.599 7.569 7.498 7.498 8.317 8.291 8.251 8.304 9.486 7.63 7.48 7.643 7.96 7.915 7.807 7.932 7.847 8.372 7.768 8.034 8.164 8.028 7.945 8.069 8.054 8.128 8.261 8.283 8.017 8.044 8.666 8.82 8.623
6.846 6.846 6.846 6.846 6.846 7.219 7.131 7.292 7.015 8.109 7.313 7.313 8.018 8.035 8.042 7.698 8.126 8.051 7.96 7.998 8.001 8.015 8.186 -9999 -9999 -9999 -9999 -9999 -9999 -9999 -9999 -9999 -9999 -9999 -9999 -9999 -9999 -9999 -9999 -9999 -9999 -9999 -9999 -9999 -9999 -9999 -9999 -9999 -9999 -9999 -9999 -9999 -9999 -9999 -9999 -9999 -9999 -9999 -9999 -9999 -9999 -9999 -9999 -9999 -9999 -9999 -9999 -9999 -9999 -9999 -9999 -9999 -9999 -9999 -9999 -9999 -9999 -9999 -9999 -9999 -9999 -9999 -9999 -9999 -9999 -9999 -9999 -9999 -9999 -9999 -9999 -9999 -9999 -9999 -9999 -9999 -9999 -9999 -9999 -9999 -9999 -9999 -9999 -9999 -9999 -9999 -9999 -9999 -9999 -9999 -9999 -9999 -9999 -9999 -9999 -9999 -9999 -9999 -9999 -9999 -9999 -9999 -9999 -9999 -9999 -9999 -9999 -9999 -9999 -9999 -9999 -9999 -9999 7.5 7.5 8.582 8.576 8.092 7.914 7.986 7.657 7.589 7.719 8.187 7.98 8.133 7.36 7.474 7.485 7.41 7.345 7.343 7.343 7.38 7.519 7.363 7.35 7.343 7.343 7.359 7.343 7.343 7.343 7.343 7.356 7.356 7.926 7.639 7.448 8.309 8.37 8.214 8.114 7.883 8.144 8.159 8.389 8.413 7.982 7.792 8.303 8.238 8.273 7.928 7.811 7.847 7.849 7.847 7.947 7.994 7.93 7.942 7.993 8.125 8.026 8.483 8.067 8.54 8.212 8.219 8.211 8.272 8.611 8.835 8.877 8.836 8.798 8.873 8.409 8.335 8.238 8.158 8.151 9.289 8.37 8.151 8.151 8.151 8.162 8.188 8.731 8.57 8.101 8.101 8.101 8.421 8.226 8.258 8.258 8.233 8.298 8.247 8.204 7.96 7.96 7.96 7.96 7.96 7.96 8.372 8.137 8.459 8.137 8.152 9.281 8.18 8.18 8.173 8.136 8.207 8.208 9.618 7.58 8.385 7.88 7.875 7.875 7.99 7.91 8.219 8.967 8.956 8.993 8.574 8.28 8.28 8.28 8.737 8.5 8.611 8.75 8.89 8.911 8.862 8.503 8.503 8.942 8.736 8.882 9.464 9.133 8.8 8.454 9.302 8.548 8.407 8.252 8.303 8.198 8.545 8.478 8.104 8.398 8.066 8.046 8.046 8.108 8.046 8.152 8.046 8.171 8.046 8.098 8.046 8.134 8.046 8.046 8.087 8.31 8.246 8.379 9.763 9.402 8.018 8.018 8.954 8.181 7.969 8.007 8.258 8.137 8.296 7.887 7.887 7.887 7.887 9.533 7.834 7.834 7.834 7.834 8.166 8.555 7.912 7.949 7.89 7.737 7.7 7.787 7.752 7.736 7.73 7.728 7.761 7.72 7.725 7.74 7.755 7.801 7.661 7.712 7.496 7.496 7.502 7.48 7.48 7.48 7.517 7.528 7.648 7.55 7.135 7.402 7.269 7.042 7.17 7.282 7.256 7.2 7.04 7.572 7.196 7.152 7.181 7.091 6.911 6.973 7.183 6.865 6.832 7.198 7.271 6.682 6.774 6.719 6.768 6.661 6.284 6.308 6.279 6.279 6.279 6.279 6.357 7.02 7.02 7.02 6.651 5.067 5.04 5.993 5.842 5.825 5.935 6.109 6.251 6.223 7.012 7.057 7.042 7.094 7.12 7.068 6.982 7.301 6.982 6.982 6.982 6.999 7.015 7.096 7.215 7.329 7.857 7.183 7.254 7.121 7.046 6.995 7.016 7.058 7.101 7.094 7.094 7.14 7.146 7.093 7.233 7.125 7.13 6.88 7.083 7.825 7.611 7.468 7.463 7.463 7.463 7.463 7.463 7.598 7.804 7.744 7.498 7.498 7.498 7.498 9.236 9.049 8.874 7.656 7.631 7.668 7.5 7.783 7.88 8.008 7.816 7.817 7.796 8.081 7.768 7.906 8.356 8.346 7.945 7.945 7.945 7.945 8.022 8.11 8.017 8.164 8.655 8.8 8.792
6.846 6.846 6.846 6.846 6.846 6.933 7.244 7.347 7.129 8.433 7.313 7.313 8.061 8.077 8.051 7.698 7.979 7.98 7.96 8.118 7.962 8.317 8.184 -9999 -9999 -9999 -9999 -9999 -9999 -9999 -9999 -9999 -9999 -9999 -9999 -9999 -9999 -9999 -9999 -9999 -9999 -9999 -9999 -9999 -9999 -9999 -9999 -9999 -9999 -9999 -9999 -9999 -9999 -9999 -9999 -9999 -9999 -9999 -9999 -9999 -9999 -9999 -9999 -9999 -9999 -9999 -9999 -9999 -9999 -9999 -9999 -9999 -9999 -9999 -9999 -9999 -9999 -9999 -9999 -9999 -9999 -9999 -9999 -9999 -9999 -9999 -9999 -9999 -9999 -9999 -9999 -9999 -9999 -9999 -9999 -9999 -9999 -9999 -9999 -9999 -9999 -9999 -9999 -9999 -9999 -9999 -9999 -9999 -9999 -9999 -9999 -9999 -9999 -9999 -9999 -9999 -9999 -9999 -9999 -9999 -9999 -9999 -9999 -9999 -9999 -9999 -9999 -9999 -9999 -9999 -9999 -9999 -9999 8.213 7.924 8.148 7.78 7.951 7.488 7.437 7.357 7.357 7.378 7.437 7.357 7.357 7.343 7.343 7.343 7.343 7.343 7.343 7.343 7.343 7.343 7.392 7.373 7.507 7.451 7.358 7.603 7.409 7.343 7.35 7.437 7.407 7.528 7.574 7.469 7.448 7.512 7.639 7.687 7.687 7.981 7.981 8.021 7.996 8.181 7.792 7.792 7.792 7.792 7.938 7.811 7.873 7.847 7.847 7.847 8.003 7.94 8.059 7.964 8.062 8.149 8.056 8.12 8.131 8.179 8.177 8.26 8.603 8.303 8.303 8.319 8.473 8.355 8.926 8.151 8.197 8.151 8.151 8.162 8.224 8.331 8.309 8.425 8.762 8.661 8.453 8.662 8.582 8.613 8.667 8.314 8.129 8.129 8.129 8.129 8.179 8.157 8.113 8.046 8.168 8.402 8.562 8.546 7.987 7.96 8.363 8.276 8.607 8.502 8.137 9.042 8.488 8.415 8.148 8.017 8.402 8.415 9.212 7.58 8.469 8.083 7.916 7.875 8.004 7.92 8.412 8.876 8.905 9 8.624 8.28 8.28 8.28 8.28 8.488 8.488 8.488 8.69 8.855 8.897 8.503 8.503 8.586 8.792 8.879 9.004 9.102 8.706 8.454 9.119 8.828 8.588 8.33 8.296 8.198 8.679 8.67 8.32 8.43 8.134 8.249 8.189 8.263 8.214 8.279 8.195 8.291 8.192 8.229 8.17 8.248 8.046 8.046 8.604 8.298 8.239 8.2 9.804 8.063 8.25 8.239 8.018 8.078 7.985 7.969 8.34 8.344 7.887 7.887 7.887 7.887 7.887 9.36 7.834 7.834 7.834 7.834 8.274 8.573 8.02 7.912 7.808 7.75 7.7 7.7 7.7 7.7 7.7 7.7 7.7 7.732 7.757 7.701 7.696 7.712 7.762 7.689 7.513 7.496 7.524 7.493 7.488 7.517 7.595 7.541 7.61 7.57 7.492 7.276 7.158 7.042 7.042 7.042 7.042 7.042 7.04 7.068 7.21 7.187 7.097 6.987 6.911 6.962 7.062 7.027 6.969 7.152 7.22 6.824 7.001 6.738 6.834 6.818 6.284 6.329 6.279 6.279 6.279 6.279 6.335 7.02 7.02 7.02 6.902 5.04 5.04 6.472 6.041 6.414 6.479 6.067 6.454 6.498 6.931 6.928 6.928 7.194 7.25 7.156 7.079 7.482 7.227 7.357 7.23 7.378 7.236 7.251 7.276 7.377 8.22 7.242 7.163 7.134 6.997 6.995 7.055 7.03 7.122 7.131 7.158 7.148 7.213 7.093 7.219 7.159 7.226 6.88 7.144 7.83 7.572 7.468 7.463 7.463 7.463 7.463 7.463 7.556 7.77 7.736 7.498 7.498 7.498 7.498 7.498 7.522 7.566 7.498 7.771 7.819 7.8 7.859 7.957 7.921 8.051 7.796 7.814 7.773 7.768 7.88 8.079 7.945 8.109 8.12 8.282 7.986 8.15 8.181 8.017 8.092 8.63 8.851 8.908
6.846 6.846 7.047 6.937 6.93 7.265 7.048 7.1 7.339 7.974 7.313 7.314 7.943 7.922 7.937 7.698 8.038 8.094 7.964 7.96 7.931 7.926 7.926 -9999 -9999 -9999 -9999 -9999 -9999 -9999 -9999 -9999 -9999 -9999 -9999 -9999 -9999 -9999 -9999 -9999 -9999 -9999 -9999 -9999 -9999 -9999 -9999 -9999 -9999 -9999 -9999 -9999 -9999 -9999 -9999 -9999 -9999 -9999 -9999 -9999 -9999 -9999 -9999 -9999 -9999 -9999 -9999 -9999 -9999 -9999 -9999 -9999 -9999 -9999 -9999 -9999 -9999 -9999 -9999 -9999 -9999 -9999 -9999 -9999 -9999 -9999 -9999 -9999 -9999 -9999 -9999 -9999 -9999 -9999 -9999 -9999 -9999 -9999 -9999 -9999 -9999 -9999 -9999 -9999 -9999 -9999 -9999 -9999 -9999 -9999 -9999 -9999 -9999 -9999 -9999 -9999 -9999 -9999 -9999 -9999 -9999 -9999 -9999 -9999 -9999 -9999 -9999 -9999 -9999 -9999 -9999 -9999 -9999 -9999 7.653 7.719 7.62 7.512 7.357 7.357 7.357 7.357 7.357 7.357 7.363 7.539 7.5 7.539 7.6 7.718 7.854 7.975 8.075 8.124 8.078 8.024 8.024 7.999 8.019 8.052 8.091 8.117 8.1 8.037 7.961 7.98 8.034 8.25 8.673 9.334 10.113 10.976 11.582 12.02 12.385 12.695 12.768 8.061 8.1 8.222 10.716 8.205 9.568 8.318 8.061 8.011 8.051 7.916 7.847 8.003 8.069 8.107 8.096 8.138 8.158 8.056 8.068 8.141 8.177 8.376 8.505 9.03 8.303 8.303 8.327 8.384 8.355 9.095 8.151 8.151 8.151 8.151 8.151 8.151 8.151 8.343 8.603 8.99 8.797 8.725 8.659 8.676 8.568 8.579 8.632 8.691 8.667 8.661 8.448 8.418 8.422 8.371 8.398 8.126 8.126 8.126 8.304 8.009 7.96 8.335 8.601 8.115 8.115 8.115 9.063 8.217 8.179 8.114 8 8.205 8.205 9.406 7.58 8.726 8.319 7.984 7.898 7.97 8.001 8.256 8.386 8.365 8.559 8.784 8.83 8.841 8.82 8.829 8.833 8.882 8.933 8.923 8.75 8.532 8.503 8.503 8.503 8.597 9.584 8.879 9.038 8.661 8.454 8.803 8.922 8.502 8.419 8.406 8.198 8.71 8.7 8.198 8.464 8.143 8.106 8.106 8.106 8.106 8.106 8.106 8.106 8.106 8.106 8.106 8.106 8.046 8.046 8.046 8.115 8.2 8.2 10.362 8.063 8.247 8.251 8.016 8.016 8.044 8.215 8.174 8.068 7.887 7.887 7.887 7.887 7.887 9.008 7.834 7.834 7.834 7.834 8.257 7.75 7.75 7.75 7.75 7.813 7.859 7.832 7.835 7.819 7.831 7.7 7.7 7.758 7.7 7.716 7.692 7.774 8.122 7.622 7.496 8.176 7.496 8.478 8.007 7.984 7.917 8.01 7.682 7.534 7.198 7.405 7.131 7.316 7.042 7.252 7.33 7.377 7.085 7.041 7.148 7.237 7.141 7.152 6.947 7.146 7.296 7.337 7.028 7.091 7.319 7.075 6.986 6.958 6.887 6.815 6.782 6.615 6.688 6.302 6.385 6.279 6.355 7.02 7.02 7.02 8.67 7.196 7.148 8.325 6.373 6.329 6.296 6.067 6.426 6.693 7.06 6.928 6.928 6.942 6.998 7.052 7.126 7.391 7.482 7.227 7.26 7.31 7.427 7.367 7.441 7.873 8.532 7.205 7.335 7.146 7.082 6.995 7.022 7.04 7.059 7.124 7.186 7.144 7.144 7.142 7.172 7.226 7.226 6.88 7.255 7.866 7.742 7.547 7.463 7.463 7.463 7.463 7.528 7.625 7.71 7.781 7.608 7.868 7.498 7.639 7.498 7.498 7.498 7.498 9.25 7.771 7.934 7.92 7.945 7.885 7.862 7.78 7.773 7.775 7.768 8.048 7.912 8.048 8.259 8.177 8.253 7.986 7.99 8.009 8.061 8.023 8.627 8.958 8.899
6.846 6.846 6.85 6.883 6.966 7.455 7.397 7.178 7.362 8.031 7.313 7.363 7.815 7.698 7.698 7.698 7.996 8.015 7.994 7.957 7.967 7.926 7.967 8.007 -9999 -9999 -9999 -9999 -9999 -9999 -9999 -9999 -9999 -9999 -9999 -9999 -9999 -9999 -9999 -9999 -9999 -9999 -9999 -9999 -9999 -9999 -9999 -9999 -9999 -9999 -9999 -9999 -9999 -9999 -9999 -9999 -9999 -9999 -9999 -9999 -9999 -9999 -9999 -9999 -9999 -9999 -9999 -9999 -9999 -9999 -9999 -9999 -9999 -9999 -9999 -9999 -9999 -9999 -9999 -9999 -9999 -9999 -9999 -9999 -9999 -9999 -9999 -9999 -9999 -9999 -9999 -9999 -9999 -9999 -9999 -9999 -9999 -9999 -9999 -9999 -9999 -9999 -9999 -9999 -9999 -9999 -9999 -9999 -9999 -9999 -9999 -9999 -9999 -9999 -9999 -9999 -9999 -9999 -9999 -9999 -9999 -9999 -9999 -9999 -9999 -9999 -9999 -9999 -9999 -9999 -9999 -9999 -9999 -9999 7.545 7.627 7.886 12.505 11.907 10.844 9.695 8.731 8.139 7.933 8.003 7.981 7.898 7.834 7.741 7.682 7.648 7.648 7.648 7.648 7.648 7.648 7.648 7.648 7.648 7.648 7.648 7.648 7.648 7.677 7.654 7.702 7.85 8.048 8.616 9.328 10.202 11.118 12.024 12.949 13.75 14.41 14.898 8.22 8.164 10.397 14.88 14.374 13.672 12.812 11.886 10.99 10.18 9.544 9.064 8.803 8.715 8.712 8.698 8.733 8.771 8.562 8.325 8.449 8.469 8.461 8.34 8.303 8.303 8.303 8.305 8.355 8.412 8.521 8.35 8.199 8.151 8.215 8.304 8.151 8.335 8.469 8.585 9.008 8.725 8.94 8.624 8.621 8.542 8.542 8.644 8.5 8.551 8.563 8.449 8.454 8.431 8.398 8.409 8.408 8.603 8.634 8.317 8.368 7.975 8.417 8.211 8.304 8.345 8.426 8.115 8 8 8 8.139 8.209 8.262 8.269 7.58 8.811 8.426 8.107 7.955 7.953 7.953 8.254 8.207 8.207 8.207 8.426 8.513 8.55 8.525 8.547 8.7 8.503 8.503 8.503 8.503 8.503 8.589 8.503 8.503 8.85 9.459 9.032 8.908 8.454 8.454 8.81 8.748 8.464 8.201 8.198 8.198 8.198 8.198 8.198 8.518 8.106 8.38 8.135 8.295 8.197 8.106 8.218 8.106 8.106 8.106 8.106 8.21 8.046 8.046 8.804 8.651 8.349 8.855 8.862 9.149 8.804 8.72 8.222 8.016 10.361 8.22 8.116 8.1 7.887 7.887 7.887 7.887 7.887 8.47 7.834 7.834 7.834 7.834 7.897 7.99 8 7.931 7.75 7.751 7.841 7.841 7.756 7.756 7.756 7.7 7.826 7.7 7.72 7.732 7.757 7.517 7.517 7.517 7.518 8.236 7.497 8.076 8.129 7.543 7.865 7.612 7.466 7.537 7.169 7.169 7.322 7.45 7.05 7.671 7.646 7.636 7.086 7.194 7.13 7.198 7.334 7.299 7.028 7.12 7.131 7.244 7.111 7.395 7.408 7.339 7.162 7.133 6.887 6.901 6.864 6.652 6.836 7.061 7.095 6.279 6.353 7.02 7.02 7.02 6.067 6.067 6.067 8.879 6.28 6.527 6.333 6.067 6.067 6.067 6.928 7.761 6.928 6.928 6.928 6.928 7.133 7.424 7.555 7.227 7.227 7.227 7.273 7.459 7.405 7.86 8.593 7.303 7.297 7.143 7.086 7.07 7.094 7.127 7.23 7.139 7.2 7.197 7.168 7.142 7.217 7.288 7.264 6.88 7.228 7.847 7.463 7.463 7.463 7.463 7.539 7.62 7.633 7.646 7.769 7.818 7.498 7.498 7.498 7.583 7.498 7.498 7.498 10.231 7.89 7.788 7.875 8.074 7.846 7.824 7.837 7.793 7.786 7.815 7.768 8.116 7.955 7.956 8.486 8.102 8.255 7.986 7.986 8.011 8.234 8.113 8.624 9.042 8.864
6.846 6.846 6.852 6.914 7.014 7.399 7.407 7.391 7.422 8.017 7.472 7.467 7.743 7.913 7.844 7.698 7.929 7.988 8.007 7.956 7.963 7.926 7.959 7.969 -9999 -9999 -9999 -9999 -9999 -9999 -9999 -9999 -9999 -9999 -9999 -9999 -9999 -9999 -9999 -9999 -9999 -9999 -9999 -9999 -9999 -9999 -9999 -9999 -9999 -9999 -9999 -9999 -9999 -9999 -9999 -9999 -9999 -9999 -9999 -9999 -9999 -9999 -9999 -9999 -9999 -9999 -9999 -9999 -9999 -9999 -9999 -9999 -9999 -9999 -9999 -9999 -9999 -9999 -9999 -9999 -9999 -9999 -9999 -9999 -9999 -9999 -9999 -9999 -9999 -9999 -9999 -9999 -9999 -9999 -9999 -9999 -9999 -9999 -9999 -9999 -9999 -9999 -9999 -9999 -9999 -9999 -9999 -9999 -9999 -9999 -9999 -9999 -9999 -9999 -9999 -9999 -9999 -9999 -9999 -9999 -9999 -9999 -9999 -9999 -9999 -9999 -9999 -9999 -9999 -9999 -9999 -9999 -9999 -9999 9.003 7.47 7.516 13.021 12.087 10.902 9.689 8.093 7.459 7.459 7.459 7.683 7.648 7.648 7.648 7.648 7.648 7.648 7.648 7.648 7.683 8.309 8.995 9.262 9.146 7.648 7.648 7.648 7.648 7.648 7.695 7.648 7.648 7.648 7.648 7.782 7.885 8.043 8.192 8.23 8.103 8.103 8.103 8.103 8.133 8.475 11.731 11.427 11.182 10.631 10.299 9.967 9.44 9.163 8.968 8.773 8.729 8.822 8.862 8.88 8.947 9.07 9.115 9.169 9.234 9.312 9.335 9.376 9.382 9.361 9.386 9.38 9.398 9.441 9.651 10.031 10.563 11.27 12.195 12.772 13.244 13.566 13.799 10.373 9.069 9.028 12.142 11.14 11.47 10.528 8.368 8.368 8.368 8.368 8.368 8.368 8.368 8.368 8.368 8.368 8.368 8.368 8.317 8.372 8.105 8.198 8.256 8.232 8.204 8.162 8.073 8.073 8.055 8.001 7.996 7.964 7.964 7.964 7.58 8.372 8.29 8.123 8.065 8.218 7.953 8.331 8.221 8.207 8.207 8.213 8.213 8.429 8.404 8.415 8.398 8.64 8.814 9.002 9.028 8.892 8.503 8.503 8.697 8.839 9.151 9.04 8.768 8.476 8.786 8.454 8.562 8.478 8.302 8.243 8.25 8.29 8.37 8.313 8.529 8.418 8.423 8.39 8.464 8.398 8.575 8.502 8.579 8.361 8.472 8.387 8.61 8.046 8.046 8.245 8.284 8.279 8.452 8.322 8.256 8.27 8.144 8.035 8.016 8.016 8.228 8.222 8.157 8.087 7.978 7.887 7.928 7.982 8.141 8.468 8.775 9.118 9.379 7.834 7.834 7.834 7.999 7.774 7.75 7.75 7.848 7.765 7.756 7.792 10.231 7.91 7.983 8.111 7.915 8.785 8.096 8.089 8.135 7.854 7.68 7.525 8.093 8.059 7.543 7.731 7.752 7.763 7.466 7.275 7.404 7.575 7.382 7.116 7.915 7.913 7.876 7.443 7.482 7.448 7.172 7.385 7.268 7.14 7.067 7.467 7.566 7.186 7.291 7.262 7.162 7.239 7.106 6.887 7.046 6.976 6.721 6.652 6.677 6.451 6.279 6.296 7.02 7.02 7.02 6.067 6.067 6.067 7.012 6.306 6.067 6.118 6.067 6.067 6.067 6.995 7.856 7.356 7.007 6.928 7.216 7.196 7.4 7.508 7.227 7.322 7.24 7.298 7.338 7.419 7.405 8.224 7.238 7.238 7.176 7.139 7.113 7.133 7.193 7.284 7.304 7.307 7.279 7.221 7.142 7.176 7.293 7.28 6.88 7.284 7.918 7.613 7.598 7.463 7.585 7.968 7.723 9.068 8.036 7.814 7.821 7.498 10.69 7.498 7.498 7.498 7.628 9.751 7.755 7.819 7.778 7.87 7.846 7.858 7.884 7.812 7.887 7.802 7.816 7.768 7.981 7.955 8.004 7.956 8.008 7.986 7.986 7.986 7.987 8.07 8.179 8.726 8.823 8.831
6.846 6.846 6.987 6.895 7.406 7.435 7.421 7.509 7.577 7.944 7.467 7.467 7.698 7.698 7.698 7.698 7.965 7.999 7.956 7.981 7.926 7.926 7.962 7.875 -9999 -9999 -9999 -9999 -9999 -9999 -9999 -9999 -9999 -9999 -9999 -9999 -9999 -9999 -9999 -9999 -9999 -9999 -9999 -9999 -9999 -9999 -9999 -9999 -9999 -9999 -9999 -9999 -9999 -9999 -9999 -9999 -9999 -9999 -9999 -9999 -9999 -9999 -9999 -9999 -9999 -9999 -9999 -9999 -9999 -9999 -9999 -9999 -9999 -9999 -9999 -9999 -9999 -9999 -9999 -9999 -9999 -9999 -9999 -9999 -9999 -9999 -9999 -9999 -9999 -9999 -9999 -9999 -9999 -9999 -9999 -9999 -9999 -9999 -9999 -9999 -9999 -9999 -9999 -9999 -9999 -9999 -9999 -9999 -9999 -9999 -9999 -9999 -9999 -9999 -9999 -9999 -9999 -9999 -9999 -9999 -9999 -9999 -9999 -9999 -9999 -9999 -9999 -9999 -9999 -9999 -9999 -9999 -9999 -9999 7.354 7.459 7.459 7.459 7.459 7.459 7.459 7.459 7.675 7.756 8.236 8.653 8.092 8.121 8.122 7.92 8.137 8.168 8.107 8.036 8.174 7.937 8.01 8.111 8.036 7.648 7.648 7.648 7.648 7.794 7.648 7.648 7.833 7.648 7.648 7.891 7.648 8.196 8.313 8.15 8.218 8.24 8.22 8.272 7.994 8.278 8.278 8.303 8.416 8.24 8.191 8.191 8.358 8.191 8.347 8.49 8.49 8.49 8.49 8.49 8.49 8.49 8.49 8.49 8.49 8.797 8.72 8.553 8.792 8.948 9.007 9.05 9.158 9.252 9.688 9.999 10.608 11.389 12.255 13.198 14.047 14.743 15.316 11.242 9.198 9.055 14.568 15.68 15.3 14.7 13.944 13.164 12.33 11.542 10.785 9.956 9.306 8.855 8.596 8.591 8.583 8.503 8.471 8.463 8.423 8.105 8.105 8.177 8.104 7.996 7.996 7.996 7.996 7.996 8.264 8.644 8.708 8.813 7.58 8.648 8.533 8.053 8.053 8.048 7.953 8.044 8.12 8.221 8.37 8.65 8.394 8.376 8.419 8.398 8.445 8.545 8.584 8.53 8.581 8.669 8.552 8.659 8.649 9.012 8.915 8.722 8.795 8.65 8.624 8.6 8.637 8.616 8.487 8.385 8.353 8.299 8.359 8.349 8.579 8.523 8.496 8.454 8.61 8.486 8.636 8.502 8.594 8.401 8.539 8.387 8.696 8.046 8.046 8.279 8.321 8.279 8.383 8.316 8.249 8.23 8.31 8.1 8.191 8.217 8.178 8.505 8.183 7.834 7.834 7.834 7.834 7.834 8.604 7.834 7.834 7.834 7.834 7.834 7.834 7.834 7.947 7.834 7.795 7.759 7.812 7.764 7.756 7.79 10.233 7.967 7.96 8.049 8.05 8.731 8.125 8.187 8.307 7.9 7.525 7.553 7.543 7.543 7.543 7.543 7.623 7.778 7.522 7.502 7.593 7.547 7.445 7.385 8.176 9.33 8.954 8.906 7.534 7.406 7.203 7.187 7.252 7.114 7.067 7.067 7.067 7.249 7.162 7.162 7.176 7.258 7.305 6.923 6.96 7.083 6.755 6.714 6.863 6.55 6.681 6.351 6.067 6.067 6.067 6.265 6.067 6.067 6.067 6.067 6.067 6.281 6.091 6.067 6.067 7.015 6.872 7.241 7.546 7.33 7.184 7.214 7.292 7.453 7.394 7.227 7.227 7.23 7.346 7.452 7.965 7.721 7.31 7.247 7.169 7.113 7.146 7.168 7.302 7.271 7.322 7.279 7.333 7.213 7.251 7.281 7.275 7.224 6.88 7.326 7.936 7.871 7.888 7.463 7.857 8.031 7.873 8.486 8.73 8.005 7.815 7.62 15.344 7.498 7.498 7.498 9.92 7.768 7.931 7.778 7.778 7.957 8.948 7.926 8.343 8.22 8.138 8.167 8.115 8.314 8.39 8.647 8.024 8.375 8.101 7.986 7.986 7.986 7.986 8.194 8.24 8.876 8.398 8.62
6.846 6.846 6.952 7.092 7.389 7.577 7.437 7.49 8.11 7.467 7.467 7.467 7.658 7.738 7.904 7.698 8.037 8.007 7.961 7.98 8.013 7.992 7.926 7.875 -9999 -9999 -9999 -9999 -9999 -9999 -9999 -9999 -9999 -9999 -9999 -9999 -9999 -9999 -9999 -9999 -9999 -9999 -9999 -9999 -9999 -9999 -9999 -9999 -9999 -9999 -9999 -9999 -9999 -9999 -9999 -9999 -9999 -9999 -9999 -9999 -9999 -9999 -9999 -9999 -9999 -9999 -9999 -9999 -9999 -9999 -9999 -9999 -9999 -9999 -9999 -9999 -9999 -9999 -9999 -9999 -9999 -9999 -9999 -9999 -9999 -9999 -9999 -9999 -9999 -9999 -9999 -9999 -9999 -9999 -9999 -9999 -9999 -9999 -9999 -9999 -9999 -9999 -9999 -9999 -9999 -9999 -9999 -9999 -9999 -9999 -9999 -9999 -9999 -9999 -9999 -9999 -9999 -9999 -9999 -9999 -9999 -9999 -9999 -9999 -9999 -9999 -9999 -9999 -9999 -9999 -9999 -9999 -9999 -9999 5.311 7.496 7.677 7.67 7.479 7.65 7.662 8.184 8.112 8.213 8.172 8.12 8.038 7.954 8.086 7.931 8.077 8.08 8.094 7.976 8.081 8.007 8.17 8.046 8.057 7.648 7.648 7.648 7.648 7.648 7.648 7.648 7.648 7.648 7.693 7.648 7.996 7.648 8.187 8.361 8.178 8.25 8.353 8.308 7.961 8.355 8.387 8.682 8.711 8.407 8.191 8.295 8.191 8.272 8.191 8.783 8.583 8.785 8.952 8.812 8.789 8.829 8.57 8.758 8.49 8.649 8.572 8.553 8.607 8.607 8.607 8.647 8.642 8.699 8.678 8.673 8.673 8.767 8.752 8.676 8.74 8.863 8.949 9.042 9.279 9.166 11.986 12.605 12.545 12.273 11.951 11.64 11.32 10.909 10.383 9.817 9.208 8.848 8.668 8.663 8.739 8.766 8.811 8.839 8.899 8.93 8.99 9.025 9.004 8.988 8.968 8.953 8.943 9.018 9.231 9.495 9.763 9.934 9.948 9.862 9.504 9.071 8.594 8.11 8.007 8.024 8.206 8.323 8.511 8.442 8.376 8.376 8.376 8.444 8.462 8.445 8.47 8.525 8.525 8.525 8.525 8.814 8.805 8.826 8.866 8.599 8.599 8.599 8.599 8.599 8.599 8.599 8.58 8.547 8.435 8.434 8.534 8.496 8.568 8.525 8.591 8.49 8.699 8.596 8.721 8.619 8.698 8.549 8.654 8.566 8.843 8.046 8.046 8.334 8.344 8.22 8.391 8.232 8.336 8.248 8.186 8.194 8.259 8.235 8.178 8.77 8.257 7.834 7.834 7.834 7.834 7.834 8.017 7.834 7.834 7.834 7.834 7.834 7.834 7.834 7.834 7.851 7.759 7.768 7.802 7.782 7.804 7.764 10.04 8.032 7.96 7.96 8.024 8.138 8.113 8.113 8.112 7.981 7.944 7.672 7.69 7.68 7.68 8.214 7.709 7.716 7.663 7.5 7.5 7.5 7.411 7.461 8.588 9.2 8.994 8.96 7.605 7.55 7.261 7.302 7.195 7.192 7.194 7.289 7.211 7.164 7.162 7.162 7.162 7.3 7.241 6.923 6.959 6.902 6.714 6.714 7.083 6.614 6.963 6.298 6.067 6.067 6.067 6.067 6.067 6.067 6.067 6.067 6.067 6.067 6.067 6.067 6.067 7.088 6.864 6.94 7.289 7.167 7.113 7.302 7.322 7.376 7.613 7.723 7.554 7.361 8.884 8.845 8.401 7.351 7.257 7.261 7.244 7.817 7.217 7.239 7.304 7.309 7.368 7.369 7.694 7.28 7.327 7.251 7.357 7.336 6.88 7.233 7.899 7.863 7.89 7.463 8.239 8.221 8.075 8.112 8.798 7.906 7.798 7.997 10.926 7.498 7.498 7.602 7.637 7.743 7.977 7.988 7.778 8.443 8.482 8.293 8.595 8.281 8.138 8.369 8.621 8.382 8.129 8.438 8.338 8.024 8.548 8.643 8.504 8.344 8.183 7.998 8.157 9.308 8.398 8.398
7.324 6.846 7.258 7.373 7.306 7.682 7.659 7.437 7.667 7.701 7.506 7.551 7.569 7.551 8.261 7.698 7.852 7.818 7.931 7.958 7.959 7.94 7.925 7.969 -9999 -9999 -9999 -9999 -9999 -9999 -9999 -9999 -9999 -9999 -9999 -9999 -9999 -9999 -9999 -9999 -9999 -9999 -9999 -9999 -9999 -9999 -9999 -9999 -9999 -9999 -9999 -9999 -9999 -9999 -9999 -9999 -9999 -9999 -9999 -9999 -9999 -9999 -9999 -9999 -9999 -9999 -9999 -9999 -9999 -9999 -9999 -9999 -9999 -9999 -9999 -9999 -9999 -9999 -9999 -9999 -9999 -9999 -9999 -9999 -9999 -9999 -9999 -9999 -9999 -9999 -9999 -9999 -9999 -9999 -9999 -9999 -9999 -9999 -9999 -9999 -9999 -9999 -9999 -9999 -9999 -9999 -9999 -9999 -9999 -9999 -9999 -9999 -9999 -9999 -9999 -9999 -9999 -9999 -9999 -9999 -9999 -9999 -9999 -9999 -9999 -9999 -9999 -9999 -9999 -9999 -9999 -9999 -9999 -9999 -9999 7.675 7.464 7.464 7.464 7.464 7.464 7.464 7.464 7.464 7.464 7.464 7.464 7.784 7.661 8.067 7.661 7.661 7.648 7.648 7.648 7.648 7.648 7.648 7.648 7.648 7.648 7.648 7.648 7.648 7.648 7.648 7.648 7.648 7.648 7.648 7.656 8.342 7.648 8.195 8.366 8.225 8.345 8.149 7.961 8.245 8.146 8.561 8.568 8.421 8.196 8.191 8.263 8.422 8.425 8.727 8.501 8.825 8.951 8.792 8.767 8.867 8.765 8.856 8.625 8.705 8.669 8.553 8.755 8.607 8.607 8.607 8.628 8.698 8.673 8.673 8.673 8.673 8.673 8.673 8.705 8.73 8.978 9.025 8.905 8.905 9.117 8.874 8.817 8.787 8.787 8.794 8.663 8.663 8.719 8.663 8.663 8.663 8.663 8.663 8.663 8.663 8.663 8.663 8.663 8.663 8.663 8.663 8.663 8.663 8.663 8.663 8.663 8.793 9.046 9.388 9.72 9.927 10.007 9.94 9.669 9.39 9.105 8.88 8.76 8.801 8.882 8.99 9.05 9.073 9.111 9.175 9.287 9.62 10.138 10.869 11.707 12.605 13.473 14.207 14.748 8.751 9.151 9.412 8.895 9.023 12.195 11.133 9.855 8.728 8.599 8.666 8.654 8.459 8.434 8.434 8.558 8.511 8.576 8.711 8.746 8.609 8.681 8.577 8.7 8.55 8.627 8.53 8.53 8.528 8.661 8.114 8.415 8.057 8.057 8.266 8.318 8.232 8.232 8.232 8.238 8.235 8.278 8.252 8.272 8.653 8.324 9.402 7.834 7.834 7.834 7.834 7.834 7.834 7.834 7.834 7.834 7.834 7.834 7.852 7.912 7.937 7.877 7.884 7.77 7.831 7.806 7.764 9.646 8.172 7.96 8.105 8.13 8.401 8.3 8.124 8.218 7.994 7.986 8.048 7.795 8.119 8.076 8.418 7.704 7.685 7.62 7.711 7.973 8.088 8.121 8.126 8.451 9.044 8.942 7.949 7.725 7.606 7.261 7.474 7.405 7.427 7.424 7.476 7.456 7.222 7.351 7.19 7.162 7.291 7.107 7.272 7.051 6.869 6.968 6.747 7.152 6.866 7.109 6.374 6.067 6.067 6.067 6.067 6.067 6.067 6.067 6.292 6.067 6.067 6.067 6.249 6.455 6.938 6.836 7.055 7.02 7.031 7.068 7.326 7.324 7.322 7.741 7.435 8.381 9.132 9.326 9.245 8.73 7.432 7.425 7.383 7.277 7.388 7.346 7.654 7.542 7.362 7.379 7.968 7.293 7.41 7.266 7.471 7.373 7.321 6.905 7.294 7.863 7.877 7.884 7.463 7.948 8.097 7.955 7.98 8.592 7.726 7.79 7.952 8.939 7.519 7.498 7.498 7.93 7.731 8.048 7.89 7.989 8.733 8.293 8.293 8.663 8.402 8.379 8.459 8.447 8.314 8.129 8.438 8.378 8.079 9.093 9.213 9.169 9.049 9.159 9.275 8.109 8.977 8.811 8.849
7.713 6.846 7.084 7.339 7.416 7.745 7.509 7.617 7.784 7.811 7.646 7.709 7.551 7.865 7.88 7.698 7.698 7.9 7.97 7.931 7.979 7.925 7.964 7.962 -9999 -9999 -9999 -9999 -9999 -9999 -9999 -9999 -9999 -9999 -9999 -9999 -9999 -9999 -9999 -9999 -9999 -9999 -9999 -9999 -9999 -9999 -9999 -9999 -9999 -9999 -9999 -9999 -9999 -9999 -9999 -9999 -9999 -9999 -9999 -9999 -9999 -9999 -9999 -9999 -9999 -9999 -9999 -9999 -9999 -9999 -9999 -9999 -9999 -9999 -9999 -9999 -9999 -9999 -9999 -9999 -9999 -9999 -9999 -9999 -9999 -9999 -9999 -9999 -9999 -9999 -9999 -9999 -9999 -9999 -9999 -9999 -9999 -9999 -9999 -9999 -9999 -9999 -9999 -9999 -9999 -9999 -9999 -9999 -9999 -9999 -9999 -9999 -9999 -9999 -9999 -9999 -9999 -9999 -9999 -9999 -9999 -9999 -9999 -9999 -9999 -9999 -9999 -9999 -9999 -9999 -9999 -9999 -9999 -9999 -9999 7.464 7.546 7.713 8.841 7.464 7.464 7.464 7.497 7.464 7.464 7.464 7.755 7.854 7.934 7.661 7.661 7.785 7.648 7.648 7.655 7.648 7.648 7.648 7.648 7.648 7.648 7.648 7.648 7.648 7.648 7.648 7.761 7.648 7.648 7.648 7.817 7.785 8.364 7.648 8.251 8.217 8.029 7.884 8.199 8.116 8.295 8.175 8.205 8.214 8.191 8.191 8.191 8.191 8.191 8.297 8.397 8.524 8.435 8.435 8.435 8.534 8.534 8.578 8.721 8.801 8.8 8.553 8.737 8.645 8.617 8.629 8.674 8.958 8.673 8.673 8.673 8.673 8.673 8.933 8.991 8.971 8.942 9.049 8.905 8.905 8.905 8.959 9.231 9.652 8.919 8.787 8.663 8.746 8.663 8.663 8.663 8.663 8.663 8.663 8.773 8.663 8.663 8.663 8.663 8.663 8.663 8.663 8.663 8.663 8.663 8.663 8.663 8.663 8.663 8.692 8.783 8.76 8.892 9.137 8.882 8.663 8.663 8.663 8.663 8.663 8.663 8.663 8.663 8.663 8.663 8.663 8.751 9.042 9.629 10.569 11.713 12.65 13.535 14.305 14.945 8.717 9.337 9.438 8.891 12.146 14.879 14.179 13.39 12.44 11.571 10.77 10.205 9.82 9.666 9.614 9.614 9.631 9.538 9.151 8.619 8.53 8.53 8.53 8.53 8.53 8.53 8.53 8.555 8.706 8.528 8.057 8.057 8.138 8.057 8.399 8.409 8.27 8.299 8.287 8.28 8.235 8.333 8.37 8.495 8.547 9.015 8.135 7.834 7.834 7.834 7.834 8.484 7.834 7.834 7.834 7.834 7.834 7.834 7.916 8.06 8.08 7.819 7.791 7.77 8.018 8.022 7.764 9.86 8.901 8.11 8.255 8.519 8.866 9.619 10.094 9.501 7.972 8.045 8.123 8.099 7.923 8.042 9.038 7.632 7.632 7.637 7.62 7.99 8.011 8.106 8.117 8.519 8.731 8.782 8.451 7.572 7.532 7.285 7.48 7.542 7.566 7.53 7.479 7.46 7.244 7.399 7.207 7.162 7.323 7.127 7.177 7.037 7.002 6.954 6.829 6.875 6.898 6.928 6.59 6.067 6.067 6.067 6.067 6.067 6.067 6.067 6.503 6.752 6.771 6.937 6.98 6.798 6.685 6.685 7.473 7.466 7.473 7.399 7.3 7.372 7.322 7.435 8.518 8.88 9.206 9.307 9.275 8.923 7.522 7.401 7.373 7.405 7.39 7.398 7.37 7.38 7.384 7.61 8.033 7.35 7.356 7.321 7.36 7.379 7.385 6.905 7.326 7.845 7.696 7.463 7.463 7.631 7.559 7.643 7.779 7.716 7.745 7.769 7.885 8.073 7.498 7.623 7.498 7.665 7.814 8.039 7.916 7.849 8.646 8.443 8.555 8.534 8.379 8.414 8.504 8.397 8.129 8.129 8.129 8.466 8.079 9.108 9.217 9.184 9.095 9.2 9.279 8.109 8.109 8.65 8.557
7.994 6.846 7.418 7.368 7.339 7.76 7.567 7.643 8.359 7.93 7.798 7.842 7.551 7.84 7.982 7.698 7.868 7.936 8.063 8.049 8.044 7.925 7.976 7.976 -9999 -9999 -9999 -9999 -9999 -9999 -9999 -9999 -9999 -9999 -9999 -9999 -9999 -9999 -9999 -9999 -9999 -9999 -9999 -9999 -9999 -9999 -9999 -9999 -9999 -9999 -9999 -9999 -9999 -9999 -9999 -9999 -9999 -9999 -9999 -9999 -9999 -9999 -9999 -9999 -9999 -9999 -9999 -9999 -9999 -9999 -9999 -9999 -9999 -9999 -9999 -9999 -9999 -9999 -9999 -9999 -9999 -9999 -9999 -9999 -9999 -9999 -9999 -9999 -9999 -9999 -9999 -9999 -9999 -9999 -9999 -9999 -9999 -9999 -9999 -9999 -9999 -9999 -9999 -9999 -9999 -9999 -9999 -9999 -9999 -9999 -9999 -9999 -9999 -9999 -9999 -9999 -9999 -9999 -9999 -9999 -9999 -9999 -9999 -9999 -9999 -9999 -9999 -9999 -9999 -9999 -9999 -9999 -9999 -9999 -9999 7.603 7.592 7.611 7.464 7.464 7.464 7.618 7.464 7.464 7.464 7.464 8.226 7.731 7.661 7.661 7.661 8.305 7.648 7.648 7.648 7.648 7.648 7.648 7.802 7.648 7.648 7.648 8.269 7.648 7.648 7.744 7.784 7.648 7.668 7.667 7.762 7.98 7.945 8.348 7.648 8.313 7.884 7.884 8.343 8.618 8.165 8.286 8.386 8.191 8.309 8.262 8.28 8.489 8.431 8.497 8.488 8.415 8.601 8.514 8.595 8.625 8.608 8.688 8.686 8.708 8.758 8.553 8.993 8.719 8.652 8.678 8.914 8.673 8.673 8.673 8.673 8.673 8.715 9.119 8.992 8.942 9.122 9.126 9.003 8.921 8.992 9.071 9.312 9.169 8.997 8.774 8.663 8.663 8.663 8.701 8.687 8.663 8.663 8.663 8.7 8.676 8.663 8.816 8.663 8.779 8.663 8.769 8.72 8.663 8.797 8.663 8.663 8.663 8.663 8.887 8.921 8.76 8.944 9.204 9.255 8.777 9.368 9.423 9.44 8.663 8.794 8.9 8.874 8.879 8.663 8.663 8.663 8.663 8.67 8.67 8.67 8.67 8.67 8.67 8.67 8.85 8.892 9.148 8.754 9.639 10.708 10.385 9.983 9.711 9.373 9.205 9.119 9.041 8.912 9.018 9.019 9.016 9.001 9.089 9.142 9.212 9.121 9.1 9.024 8.946 8.841 8.749 8.731 8.646 8.518 8.206 8.435 8.3 8.403 8.362 8.269 8.269 8.269 8.238 8.235 8.235 8.235 8.235 8.235 8.235 8.932 8.607 7.89 7.834 7.834 7.834 7.834 7.834 7.834 7.834 8.42 7.834 7.873 7.958 7.852 7.77 7.77 7.77 7.921 7.85 8.049 7.79 7.865 7.879 7.879 7.879 7.879 7.879 7.879 7.879 7.948 8.027 9.048 8.572 8.379 9.468 7.924 9.462 8.109 8.211 7.877 7.62 7.939 8.022 8.034 8.05 8.058 8.141 8.114 8.02 7.784 7.689 7.461 7.285 7.285 7.294 7.311 7.311 7.319 7.289 7.375 7.285 7.162 7.283 7.112 7.073 6.865 6.865 6.865 6.954 6.955 7.063 7.015 6.961 6.798 6.77 7.04 6.88 6.896 6.967 7.096 7.082 6.932 6.778 6.81 6.785 6.732 6.873 6.705 7.186 7.33 7.499 7.432 7.453 7.322 7.322 7.437 8.698 9.054 9.539 9.58 9.377 8.913 7.591 7.421 7.39 7.409 7.445 7.42 7.42 7.47 7.471 7.614 7.673 7.448 7.428 7.321 7.321 7.411 7.401 6.953 7.266 7.884 7.769 7.589 7.463 7.471 7.463 7.463 7.463 7.49 7.644 7.757 7.934 8.041 7.498 7.498 7.651 7.765 7.665 7.922 7.816 8.002 8.21 8.519 8.625 8.385 8.485 8.418 8.278 8.278 8.129 8.129 8.442 8.174 8.079 9.1 9.259 9.264 9.097 9.242 9.3 8.619 8.555 8.557 8.611
7.676 6.846 7.699 8.07 8.227 7.995 7.904 7.977 8.073 7.835 7.786 7.707 7.65 7.802 7.858 7.698 7.698 7.856 8.276 8.024 8.019 7.925 7.955 8.012 -9999 -9999 -9999 -9999 -9999 -9999 -9999 -9999 -9999 -9999 -9999 -9999 -9999 -9999 -9999 -9999 -9999 -9999 -9999 -9999 -9999 -9999 -9999 -9999 -9999 -9999 -9999 -9999 -9999 -9999 -9999 -9999 -9999 -9999 -9999 -9999 -9999 -9999 -9999 -9999 -9999 -9999 -9999 -9999 -9999 -9999 -9999 -9999 -9999 -9999 -9999 -9999 -9999 -9999 -9999 -9999 -9999 -9999 -9999 -9999 -9999 -9999 -9999 -9999 -9999 -9999 -9999 -9999 -9999 -9999 -9999 -9999 -9999 -9999 -9999 -9999 -9999 -9999 -9999 -9999 -9999 -9999 -9999 -9999 -9999 -9999 -9999 -9999 -9999 -9999 -9999 -9999 -9999 -9999 -9999 -9999 -9999 -9999 -9999 -9999 -9999 -9999 -9999 -9999 -9999 -9999 -9999 -9999 -9999 -9999 -9999 -9999 7.65 7.685 7.702 7.852 8 7.735 8.047 7.797 7.827 7.728 7.797 8.118 7.774 8.002 7.771 8.283 7.962 7.834 7.648 7.928 7.766 7.873 7.881 7.749 7.842 7.821 7.863 7.648 7.648 7.71 7.774 7.648 7.709 7.709 7.732 7.732 8.028 8.042 8.341 7.884 7.884 8.209 8.664 8.748 8.754 8.547 8.271 8.121 8.121 8.293 8.359 8.28 8.28 8.487 8.395 8.395 8.395 8.395 8.395 8.395 8.395 8.395 8.427 8.498 8.622 8.553 9.124 8.746 9.03 8.652 8.791 8.673 8.673 8.673 8.673 8.703 8.789 9.093 9.122 9.168 9.32 9.282 8.918 8.958 8.947 9.061 9.011 8.875 8.947 8.782 8.663 8.663 8.663 8.663 8.663 8.663 8.663 8.663 8.89 8.768 8.759 8.663 8.736 8.68 8.663 8.782 8.722 8.74 8.74 8.663 8.663 8.663 8.663 8.802 8.855 8.76 9.033 10.013 9.923 8.777 8.777 8.894 9.567 8.663 8.828 9.097 8.714 9.247 8.663 9.17 8.853 9.231 9.241 9.172 9.074 9.006 8.75 8.719 8.67 8.671 8.726 8.726 8.726 8.726 8.726 8.726 8.843 8.798 8.798 8.857 8.851 8.798 8.798 8.798 8.798 8.798 8.798 8.798 8.798 8.798 8.798 8.799 8.798 8.798 8.748 8.781 8.78 8.796 8.833 8.842 8.847 8.805 8.752 8.84 9.168 9.671 10.312 11.173 12.286 13.444 14.529 15.368 16.043 11.305 8.6 8.451 14.178 16.575 16.067 15.404 14.573 13.19 11.695 10.16 8.684 7.87 7.834 8.012 7.832 7.77 7.77 7.77 7.77 7.77 7.865 7.79 7.878 7.918 7.879 7.879 7.879 7.879 7.879 7.879 8.02 8.022 7.844 7.733 7.733 7.733 7.733 7.733 7.733 7.733 7.733 7.798 7.62 7.635 7.635 7.635 7.635 7.665 7.966 7.891 7.707 7.725 7.285 7.41 7.446 7.469 7.447 7.353 7.423 7.301 7.391 7.28 7.189 7.312 6.919 6.918 6.901 6.865 7.047 6.917 7.07 7.116 6.995 6.893 6.912 6.926 6.948 7.076 7.091 7.212 7.101 6.909 6.841 6.784 6.821 6.735 6.705 6.705 6.705 7.425 7.95 7.938 7.845 7.322 7.322 7.322 7.379 8.659 9.148 9.656 9.705 9.364 8.795 7.541 7.39 7.396 7.39 7.396 7.419 7.518 7.648 7.5 7.52 7.494 7.428 8.262 7.52 7.446 7.408 7.427 7.021 7.41 7.86 7.76 7.531 7.463 7.463 7.463 7.463 7.463 7.463 7.859 7.873 7.991 8.042 7.498 7.498 8.044 8.039 7.665 7.83 7.816 7.936 8.116 8.35 8.514 8.405 8.51 8.408 8.431 8.321 8.148 8.129 8.216 8.098 8.079 9.042 9.291 9.193 9.097 9.155 9.049 8.716 8.829 8.9 8.652
7.875 7.017 7.883 8.098 8.21 8.05 8.076 8.064 7.878 7.858 8.013 8.02 7.88 7.864 7.902 7.826 7.968 7.855 7.879 8.078 8.115 8.167 8.148 8.2 -9999 -9999 -9999 -9999 -9999 -9999 -9999 -9999 -9999 -9999 -9999 -9999 -9999 -9999 -9999 -9999 -9999 -9999 -9999 -9999 -9999 -9999 -9999 -9999 -9999 -9999 -9999 -9999 -9999 -9999 -9999 -9999 -9999 -9999 -9999 -9999 -9999 -9999 -9999 -9999 -9999 -9999 -9999 -9999 -9999 -9999 -9999 -9999 -9999 -9999 -9999 -9999 -9999 -9999 -9999 -9999 -9999 -9999 -9999 -9999 -9999 -9999 -9999 -9999 -9999 -9999 -9999 -9999 -9999 -9999 -9999 -9999 -9999 -9999 -9999 -9999 -9999 -9999 -9999 -9999 -9999 -9999 -9999 -9999 -9999 -9999 -9999 -9999 -9999 -9999 -9999 -9999 -9999 -9999 -9999 -9999 -9999 -9999 -9999 -9999 -9999 -9999 -9999 -9999 -9999 -9999 -9999 -9999 -9999 -9999 -9999 -9999 -9999 7.688 7.582 7.69 7.69 8.029 7.648 7.648 7.648 7.648 7.767 7.648 7.648 7.648 7.728 7.717 7.648 7.648 7.657 7.648 9.5 9.321 9.232 9.389 9.412 9.516 9.381 9.15 9.346 9.183 9.16 7.648 7.733 7.709 7.932 7.811 7.894 8.127 7.889 8.491 7.884 7.884 8.686 8.624 8.789 8.286 8.234 8.121 8.61 8.578 8.55 8.392 8.298 8.511 8.395 8.601 8.537 8.395 8.535 8.609 8.578 8.721 8.751 8.79 8.796 8.553 9.1 8.71 8.699 8.667 8.737 8.673 8.673 8.673 8.677 8.781 8.832 9.235 9.288 9.153 9.284 9.246 8.936 8.861 8.988 8.754 8.748 8.9 8.663 8.705 8.663 8.663 8.663 8.663 8.663 8.663 8.663 8.663 8.663 8.663 8.663 8.663 8.663 8.663 8.663 8.663 8.663 8.663 8.663 8.663 8.663 8.663 8.663 8.716 8.76 8.76 9.35 9.953 9.841 8.777 8.777 8.872 9.555 8.663 8.819 8.907 8.663 8.663 8.663 8.663 8.663 9.25 9.2 8.95 8.95 9.131 9.203 9.3 8.67 8.67 9.379 8.993 8.726 8.726 9.14 9.323 9.16 8.798 8.798 8.798 8.798 8.798 8.798 8.798 8.798 9.055 8.88 8.8 8.998 8.798 8.913 8.798 8.798 8.879 8.537 8.537 8.537 8.537 8.537 8.537 8.537 8.537 8.537 8.537 8.537 8.537 8.537 9.961 11.515 13.101 14.229 15.146 15.876 12.309 8.334 8.201 10.596 16.035 16.284 15.719 14.919 13.931 12.805 11.709 10.781 9.969 9.321 8.924 8.728 8.707 8.686 8.662 8.62 8.58 8.525 8.533 8.528 8.58 8.8 9.106 9.622 10.244 10.952 11.798 12.551 13.13 13.685 14.086 14.463 14.752 15.027 15.146 15.169 15.267 10.672 9.661 15.168 15.058 15.033 15.001 15.003 14.981 14.909 14.899 14.785 8.118 8.142 7.888 7.408 7.161 7.161 7.161 7.161 7.161 7.014 6.975 6.975 6.918 6.918 6.994 7.034 7.034 6.913 7.015 6.918 6.893 6.893 6.893 6.902 6.845 6.938 6.845 6.866 6.893 6.845 6.886 6.947 6.862 6.908 6.788 6.705 6.705 6.896 7.297 7.466 7.531 7.591 7.322 7.322 7.322 7.322 8.482 8.947 9.304 9.404 9.18 8.748 7.718 7.454 7.429 7.418 7.464 7.474 7.503 7.553 7.587 7.56 7.559 7.579 7.873 7.408 7.408 7.478 7.429 7.021 7.37 7.86 7.702 7.463 7.463 7.463 7.463 7.463 7.463 7.463 7.753 8.048 8.027 8.296 7.498 7.79 8.112 7.932 7.874 7.687 7.789 7.831 8.281 8.566 8.31 8.31 8.31 8.31 8.328 8.376 8.129 8.129 8.129 8.118 8.079 9.241 9.412 9.395 9.388 9.251 8.589 8.589 8.781 8.615 8.646
8.222 7.25 8.159 8.28 8.328 8.146 8.153 8.166 7.927 8.11 -9999 -9999 -9999 -9999 -9999 -9999 -9999 -9999 -9999 -9999 -9999 -9999 -9999 -9999 -9999 -9999 -9999 -9999 -9999 -9999 -9999 -9999 -9999 -9999 -9999 -9999 -9999 -9999 -9999 -9999 -9999 -9999 -9999 -9999 -9999 -9999 -9999 -9999 -9999 -9999 -9999 -9999 -9999 -9999 -9999 -9999 -9999 -9999 -9999 -9999 -9999 -9999 -9999 -9999 -9999 -9999 -9999 -9999 -9999 -9999 -9999 -9999 -9999 -9999 -9999 -9999 -9999 -9999 -9999 -9999 -9999 -9999 -9999 -9999 -9999 -9999 -9999 -9999 -9999 -9999 -9999 -9999 -9999 -9999 -9999 -9999 -9999 -9999 -9999 -9999 -9999 -9999 -9999 -9999 -9999 -9999 -9999 -9999 -9999 -9999 -9999 -9999 -9999 -9999 -9999 -9999 -9999 -9999 -9999 -9999 -9999 -9999 -9999 -9999 -9999 -9999 -9999 -9999 -9999 -9999 -9999 -9999 -9999 -9999 -9999 -9999 -9999 -9999 7.745 7.789 7.715 8.083 7.648 7.648 7.648 7.648 7.68 7.648 7.648 7.648 7.648 8.936 7.648 7.648 7.648 7.648 8.148 7.793 7.793 7.793 7.793 7.793 7.793 7.793 7.704 7.648 7.648 7.648 7.806 7.709 8.007 7.95 8.012 7.889 8.289 8.415 8.614 7.884 7.884 8.595 8.528 8.618 8.121 8.468 8.588 8.604 8.32 8.555 8.559 8.51 8.395 8.395 8.395 8.395 8.682 8.535 8.678 8.725 8.801 8.782 8.983 8.553 9.092 8.726 8.748 8.732 8.673 8.673 8.673 8.673 8.673 8.827 8.84 9.022 9.022 9.48 9.324 9.268 9.168 8.912 8.754 8.774 8.663 8.663 8.663 8.663 8.663 8.663 8.663 8.663 8.663 8.663 8.663 8.663 8.663 8.663 8.663 8.663 8.663 8.663 8.663 8.663 8.663 8.663 8.663 8.663 8.663 8.663 8.663 8.663 9.054 8.963 9.431 9.622 9.684 8.777 8.777 8.819 9.464 8.663 8.832 8.91 8.663 8.663 8.663 8.663 8.663 9.268 9.159 8.95 8.95 9.127 9.22 9.219 8.67 8.67 8.816 9.155 8.726 9.174 9.336 9.322 9.377 8.798 8.798 8.798 8.798 8.798 8.826 8.834 8.798 9.08 8.8 8.866 9.002 8.9 9.018 8.85 8.798 9.127 9.348 9.314 8.858 9.11 8.537 8.537 8.537 8.537 8.537 8.537 8.537 8.537 8.537 8.537 8.567 8.321 8.101 8.101 8.101 8.101 8.101 8.101 8.101 8.198 11.735 11.505 10.886 10.13 8.722 8.101 8.101 8.101 8.101 8.164 8.228 8.369 8.438 8.557 9.077 9.354 9.531 9.596 9.637 9.698 9.866 10.186 10.458 9.158 8.101 8.101 8.101 8.101 8.101 8.101 8.101 8.101 8.101 8.101 8.101 8.173 8.397 8.47 14.591 14.95 14.997 14.981 14.982 15.027 14.976 15.054 15.13 11.174 8.978 15.174 14.974 14.926 14.775 14.503 14.184 13.776 13.334 12.859 12.28 11.646 10.919 10.126 9.449 8.902 8.544 8.451 8.656 7.827 6.893 6.893 6.97 6.845 6.845 6.845 6.845 6.845 6.845 6.845 6.845 6.845 6.827 6.823 6.705 6.705 7.2 7.276 8.184 8.181 7.836 7.322 7.322 7.322 7.322 8.397 8.486 8.873 8.938 9.077 8.724 7.648 7.428 7.428 7.419 7.418 7.531 7.483 7.563 7.549 7.562 7.559 7.649 7.857 7.622 7.55 7.596 7.616 7.692 7.463 7.614 7.748 7.464 7.463 7.463 7.463 7.463 7.463 7.463 7.463 7.848 8.207 7.498 7.631 7.824 8.027 7.855 7.787 7.795 7.679 7.688 8.065 8.31 8.31 8.31 8.31 8.31 8.338 8.129 8.316 8.227 8.286 8.349 8.079 9.017 9.171 9.098 8.965 9.281 8.632 8.589 8.678 8.615 8.615
-9999 -9999 -9999 -9999 -9999 -9999 -9999 -9999 -9999 -9999 -9999 -9999 -9999 -9999 -9999 -9999 -9999 -9999 -9999 -9999 -9999 -9999 -9999 -9999 -9999 -9999 -9999 -9999 -9999 -9999 -9999 -9999 -9999 -9999 -9999 -9999 -9999 -9999 -9999 -9999 -9999 -9999 -9999 -9999 -9999 -9999 -9999 -9999 -9999 -9999 -9999 -9999 -9999 -9999 -9999 -9999 -9999 -9999 -9999 -9999 -9999 -9999 -9999 -9999 -9999 -9999 -9999 -9999 -9999 -9999 -9999 -9999 -9999 -9999 -9999 -9999 -9999 -9999 -9999 -9999 -9999 -9999 -9999 -9999 -9999 -9999 -9999 -9999 -9999 -9999 -9999 -9999 -9999 -9999 -9999 -9999 -9999 -9999 -9999 -9999 -9999 -9999 -9999 -9999 -9999 -9999 -9999 -9999 -9999 -9999 -9999 -9999 -9999 -9999 -9999 -9999 -9999 -9999 -9999 -9999 -9999 -9999 -9999 -9999 -9999 -9999 -9999 -9999 -9999 -9999 -9999 -9999 -9999 -9999 -9999 -9999 -9999 -9999 -9999 7.862 7.708 8.267 7.648 7.648 7.648 7.648 7.648 7.648 7.648 7.648 7.648 7.648 7.648 7.648 7.648 7.648 8.117 7.793 7.793 7.793 7.793 7.849 7.793 7.809 7.794 7.788 7.648 7.701 7.931 7.709 7.982 8.136 7.905 8.102 8.267 8.336 8.35 8.723 7.884 7.884 8.121 8.121 8.686 8.687 8.595 8.32 8.706 8.685 8.513 8.395 8.395 8.535 8.534 8.4 8.638 8.536 8.543 8.622 8.553 8.553 8.553 8.553 9.097 8.741 8.74 8.727 8.682 8.673 8.673 8.673 8.792 8.825 8.885 9.04 9.047 9.185 9.19 9.375 9.227 8.985 8.861 8.816 8.789 8.811 8.758 8.663 8.663 8.663 8.667 8.663 8.695 8.664 8.663 8.799 8.663 8.673 8.78 8.769 8.703 8.663 8.663 8.663 8.663 8.663 8.663 8.663 8.663 8.663 8.663 9 9.214 8.903 9.434 9.677 9.587 8.992 9.203 9.585 9.556 8.663 8.808 8.963 8.663 8.663 8.663 8.663 8.729 9.282 9.119 8.95 8.95 9.154 9.239 9.243 8.671 8.67 8.778 8.922 8.726 9.157 9.249 9.171 9.254 8.81 8.923 9.021 9.03 9.04 9.03 9.059 8.895 9.038 8.953 9.338 9.294 9.312 9.028 8.798 8.798 9.096 9.097 8.858 8.912 8.838 8.537 8.537 9.071 8.979 8.792 8.537 8.537 8.959 9.176 9.064 9.244 8.796 8.541 8.453 8.326 8.277 8.123 8.101 8.101 8.101 8.769 8.101 8.101 8.101 8.101 8.101 8.101 8.101 8.101 8.101 8.101 8.101 8.101 8.101 8.101 8.101 8.101 8.101 8.139 8.42 8.768 8.821 8.887 8.173 8.101 8.101 8.101 8.101 8.101 8.101 8.101 8.101 8.101 8.273 8.4 8.396 8.385 8.367 8.347 8.101 8.101 8.101 8.101 8.101 8.101 8.101 8.101 8.127 8.101 8.101 8.101 8.101 8.101 8.101 8.101 8.101 8.101 8.101 10.83 11.393 10.703 10.014 9.372 8.896 8.478 8.18 8.101 8.117 8.371 8.793 9.414 10.12 10.962 11.815 12.722 13.639 6.845 7.189 7.033 6.901 6.705 6.705 6.788 6.88 6.933 7.077 8.744 8.746 8.374 8.65 7.322 7.322 7.322 8.241 8.388 8.592 8.623 8.763 8.603 7.527 7.469 7.464 7.431 7.45 7.536 7.548 7.546 7.623 7.627 7.621 7.598 7.664 7.67 7.7 7.56 7.475 7.463 7.463 7.675 7.851 7.503 7.463 7.463 7.463 7.463 7.463 7.678 7.463 7.463 7.492 7.526 7.826 7.631 7.631 7.631 7.644 7.658 7.668 7.687 8.863 9.118 9.457 9.445 9.582 9.136 9.122 9.424 9.446 9.494 9.479 9.518 9.679 9.072 9.186 9.212 9.132 8.404 8.486 8.478 8.73 8.676 8.615
-9999 -9999 -9999 -9999 -9999 -9999 -9999 -9999 -9999 -9999 -9999 -9999 -9999 -9999 -9999 -9999 -9999 -9999 -9999 -9999 -9999 -9999 -9999 -9999 -9999 -9999 -9999 -9999 -9999 -9999 -9999 -9999 -9999 -9999 -9999 -9999 -9999 -9999 -9999 -9999 -9999 -9999 -9999 -9999 -9999 -9999 -9999 -9999 -9999 -9999 -9999 -9999 -9999 -9999 -9999 -9999 -9999 -9999 -9999 -9999 -9999 -9999 -9999 -9999 -9999 -9999 -9999 -9999 -9999 -9999 -9999 -9999 -9999 -9999 -9999 -9999 -9999 -9999 -9999 -9999 -9999 -9999 -9999 -9999 -9999 -9999 -9999 -9999 -9999 -9999 -9999 -9999 -9999 -9999 -9999 -9999 -9999 -9999 -9999 -9999 -9999 -9999 -9999 -9999 -9999 -9999 -9999 -9999 -9999 -9999 -9999 -9999 -9999 -9999 -9999 -9999 -9999 -9999 -9999 -9999 -9999 -9999 -9999 -9999 -9999 -9999 -9999 -9999 -9999 -9999 -9999 -9999 -9999 -9999 -9999 -9999 -9999 -9999 -9999 -9999 7.827 7.748 7.834 7.648 7.648 7.648 7.648 7.648 7.648 7.648 7.648 7.648 7.648 7.648 7.648 7.648 8.261 7.793 7.793 7.793 7.793 7.955 7.793 7.803 7.808 7.754 7.72 7.718 7.946 7.772 8.303 8.271 7.911 8.416 8.289 8.412 8.529 8.576 8.675 7.884 8.618 8.219 8.43 8.438 8.32 8.671 8.708 8.457 8.348 8.474 8.523 8.446 8.626 8.4 8.4 8.4 8.476 8.579 8.81 8.857 8.881 8.553 9.169 8.719 8.757 8.756 8.673 8.673 8.673 8.73 8.863 8.833 8.85 9.085 9.15 9.294 9.243 9.286 9.24 8.976 8.771 8.666 8.663 8.663 8.663 8.663 8.663 8.663 8.663 8.663 8.663 8.663 8.663 8.663 8.663 8.663 8.663 8.663 8.663 8.663 8.663 8.663 8.663 8.663 8.663 8.663 8.663 9.043 8.663 9.104 9.242 8.777 9.474 9.597 9.661 8.881 8.663 8.686 8.663 8.663 8.812 8.941 9.033 9.082 8.663 9.182 8.95 8.997 8.95 8.981 9.029 9.162 9.016 9.205 8.73 8.724 8.756 8.726 8.726 9.03 9.076 8.726 8.792 9.019 9.086 8.849 8.82 8.82 8.798 8.798 8.798 9.082 8.981 9.312 9.163 8.979 8.979 8.798 8.798 9.084 9.294 9.268 8.902 8.942 8.537 8.537 9.141 8.873 8.899 8.607 8.537 8.736 9.155 9.064 9.176 8.988 9.175 9.255 8.844 8.573 8.101 8.251 8.266 8.101 8.101 8.101 8.685 8.246 8.101 8.101 8.101 8.101 8.131 8.778 8.596 8.638 8.266 8.101 8.101 8.101 8.101 8.101 8.101 8.101 8.101 8.101 8.101 8.101 8.101 8.13 8.101 8.101 8.101 8.101 8.101 8.101 8.101 8.101 8.101 8.101 8.101 8.101 8.101 8.101 8.101 8.101 8.101 8.101 8.101 8.101 8.101 8.101 8.101 8.101 8.101 8.101 8.101 8.101 8.101 8.101 8.101 8.101 8.101 8.101 8.101 8.101 8.101 8.101 8.101 8.101 8.101 8.101 8.101 8.101 8.101 8.101 8.101 10.919 11.789 12.717 13.555 14.283 14.931 15.607 6.705 7.292 7.436 7.456 7.048 7.091 7.122 7.353 7.389 7.335 7.322 7.322 7.322 8.041 8.189 8.373 8.554 8.456 8.348 7.669 7.569 7.522 7.55 7.573 7.571 7.562 7.587 7.574 7.612 7.561 7.558 7.596 7.932 7.929 7.529 7.565 7.463 7.463 8.036 7.767 7.463 7.463 7.463 7.463 7.463 7.463 7.752 7.67 8.039 7.478 8.003 8.151 7.631 7.833 7.894 7.881 7.831 7.658 7.909 9.392 9.317 9.435 9.333 9.474 9.199 9.197 9.24 9.294 9.403 9.434 9.502 9.631 9.147 9.249 9.24 9.17 8.438 8.404 8.404 8.641 8.374 8.518
-9999 -9999 -9999 -9999 -9999 -9999 -9999 -9999 -9999 -9999 -9999 -9999 -9999 -9999 -9999 -9999 -9999 -9999 -9999 -9999 -9999 -9999 -9999 -9999 -9999 -9999 -9999 -9999 -9999 -9999 -9999 -9999 -9999 -9999 -9999 -9999 -9999 -9999 -9999 -9999 -9999 -9999 -9999 -9999 -9999 -9999 -9999 -9999 -9999 -9999 -9999 -9999 -9999 -9999 -9999 -9999 -9999 -9999 -9999 -9999 -9999 -9999 -9999 -9999 -9999 -9999 -9999 -9999 -9999 -9999 -9999 -9999 -9999 -9999 -9999 -9999 -9999 -9999 -9999 -9999 -9999 -9999 -9999 -9999 -9999 -9999 -9999 -9999 -9999 -9999 -9999 -9999 -9999 -9999 -9999 -9999 -9999 -9999 -9999 -9999 -9999 -9999 -9999 -9999 -9999 -9999 -9999 -9999 -9999 -9999 -9999 -9999 -9999 -9999 -9999 -9999 -9999 -9999 -9999 -9999 -9999 -9999 -9999 -9999 -9999 -9999 -9999 -9999 -9999 -9999 -9999 -9999 -9999 -9999 -9999 -9999 -9999 -9999 -9999 -9999 -9999 7.8 7.648 7.67 7.869 7.832 7.774 8.224 8.264 8.424 8.455 8.492 8.397 8.262 8.535 8.397 9.562 7.793 7.793 7.824 7.839 9.559 7.847 7.793 7.838 7.798 7.98 7.788 8.255 7.772 8.272 8.37 7.99 8.264 8.495 8.387 8.454 8.544 8.643 8.797 7.884 8.808 8.27 8.32 8.574 8.755 8.528 8.348 8.603 8.606 8.661 8.563 8.4 8.406 8.584 8.674 8.711 8.65 8.786 8.92 8.99 8.553 9.16 8.756 8.719 8.688 8.673 8.673 8.673 8.688 8.837 8.824 8.839 9.163 9.131 9.748 9.685 9.425 9.27 8.993 8.885 8.826 8.813 8.887 8.663 8.663 8.674 8.663 8.735 8.663 8.753 8.887 8.663 8.791 8.783 8.663 8.775 8.798 8.693 8.663 8.663 8.663 8.663 8.663 8.663 8.663 8.663 8.663 8.663 8.663 8.663 8.663 8.663 8.663 8.663 8.663 8.663 8.663 8.663 8.663 8.663 8.663 8.663 8.663 8.663 8.663 8.663 8.663 8.663 8.663 8.663 8.663 8.663 8.663 8.663 8.663 8.779 9.066 8.726 9.297 9.057 8.726 8.975 9.048 9.066 8.963 9.001 9.051 8.798 8.798 8.798 9.022 8.981 9.3 9.297 9.313 9.033 8.799 8.798 8.862 9.091 9.18 8.941 8.755 8.537 8.537 9.157 9.258 8.993 8.849 8.793 8.945 9.457 9.369 9.385 9.354 9.307 8.857 8.871 8.596 8.101 9.037 9.223 8.949 8.971 8.101 8.101 8.101 8.101 8.101 8.101 8.101 8.101 8.101 8.101 8.101 8.101 8.101 8.101 8.101 8.101 8.101 8.154 8.101 8.101 8.11 8.101 8.129 8.203 8.359 8.164 8.101 8.163 8.264 8.27 8.101 8.101 8.233 8.141 8.101 8.101 8.101 8.101 8.101 8.101 8.101 8.101 8.101 8.101 8.101 8.101 8.101 8.101 8.101 8.101 8.101 8.101 8.101 8.101 8.101 8.101 8.101 8.101 8.101 8.101 8.101 8.101 8.101 8.101 8.101 8.101 8.101 8.101 8.101 8.101 8.381 8.58 8.101 8.101 8.101 8.101 8.101 14.02 14.549 15.094 15.583 9.741 7.934 7.533 7.21 7.376 7.406 7.451 7.45 7.434 7.468 7.452 7.505 7.618 7.618 8.016 8.074 8.165 7.632 7.624 7.545 7.567 7.617 7.61 7.586 7.569 7.616 7.561 7.62 7.645 7.558 7.803 7.993 7.476 7.476 7.463 7.5 7.979 7.62 7.463 7.463 7.463 7.463 7.463 7.785 7.463 7.8 7.478 7.786 8.403 8.092 7.697 7.985 7.975 7.978 7.879 7.679 7.821 9.495 9.284 9.29 9.261 9.338 9.256 8.628 8.624 8.624 9.405 9.594 9.677 9.807 9.874 9.719 9.817 8.909 8.596 8.404 8.488 8.404 8.374 8.374
-9999 -9999 -9999 -9999 -9999 -9999 -9999 -9999 -9999 -9999 -9999 -9999 -9999 -9999 -9999 -9999 -9999 -9999 -9999 -9999 -9999 -9999 -9999 -9999 -9999 -9999 -9999 -9999 -9999 -9999 -9999 -9999 -9999 -9999 -9999 -9999 -9999 -9999 -9999 -9999 -9999 -9999 -9999 -9999 -9999 -9999 -9999 -9999 -9999 -9999 -9999 -9999 -9999 -9999 -9999 -9999 -9999 -9999 -9999 -9999 -9999 -9999 -9999 -9999 -9999 -9999 -9999 -9999 -9999 -9999 -9999 -9999 -9999 -9999 -9999 -9999 -9999 -9999 -9999 -9999 -9999 -9999 -9999 -9999 -9999 -9999 -9999 -9999 -9999 -9999 -9999 -9999 -9999 -9999 -9999 -9999 -9999 -9999 -9999 -9999 -9999 -9999 -9999 -9999 -9999 -9999 -9999 -9999 -9999 -9999 -9999 -9999 -9999 -9999 -9999 -9999 -9999 -9999 -9999 -9999 -9999 -9999 -9999 -9999 -9999 -9999 -9999 -9999 -9999 -9999 -9999 -9999 -9999 -9999 -9999 -9999 -9999 -9999 -9999 -9999 -9999 -9999 7.816 7.53 7.617 7.819 7.74 7.74 8.109 7.914 7.786 7.786 7.81 7.786 7.869 7.786 8.515 7.83 7.793 7.793 7.935 7.851 7.889 7.918 7.823 7.798 7.854 7.885 8.168 7.866 8.241 8.462 8.014 8.374 8.396 8.464 8.42 8.426 8.594 8.608 8.823 7.884 8.743 8.5 8.449 8.534 8.348 8.588 8.632 8.563 8.41 8.467 8.687 8.616 8.567 8.66 8.553 8.553 8.553 8.553 8.553 8.553 9.162 8.708 8.715 8.673 8.676 8.673 8.673 8.69 8.782 8.823 8.87 9.072 9.16 9.709 9.753 9.446 9.08 8.928 8.854 8.775 8.743 8.732 8.743 8.663 8.663 8.815 8.795 8.843 8.789 8.881 8.663 8.872 8.726 8.774 8.759 8.761 8.778 8.663 8.663 8.663 8.663 8.663 8.663 8.663 9.105 8.663 8.737 8.797 8.791 8.767 8.735 8.74 8.701 8.765 8.663 8.663 8.663 8.663 8.663 8.663 8.663 8.663 8.663 8.663 8.663 8.663 8.713 8.828 8.928 8.964 8.968 8.966 8.818 8.691 9.027 9.087 8.726 9.118 9.142 8.726 8.948 8.914 9.055 8.959 8.798 8.798 8.817 8.798 8.798 9.066 8.995 9.218 9.17 9.243 8.82 8.798 8.798 9.334 9.227 9.24 9.259 8.537 8.537 8.537 9.16 9.403 9.052 9.062 9.081 9.054 9.081 8.982 9.159 9.119 9.068 9.129 9.267 8.987 8.101 8.988 9.2 9.188 8.466 8.101 8.101 8.101 8.186 8.243 8.743 8.425 8.571 8.101 8.101 8.101 8.101 8.12 8.162 8.101 8.234 8.11 8.187 8.101 8.201 8.237 8.101 8.25 8.129 9.125 8.329 8.101 8.463 8.53 8.501 8.101 8.101 8.226 8.309 8.235 8.101 8.101 8.101 8.101 8.101 8.101 8.101 8.101 8.101 8.101 8.101 8.101 8.101 8.101 8.101 8.101 8.101 8.101 8.101 8.101 8.101 8.101 8.101 8.101 8.101 8.101 8.101 8.101 8.101 8.101 8.101 8.101 8.101 8.101 8.101 8.101 8.101 8.101 8.101 8.101 8.467 8.101 8.101 8.101 8.101 8.101 8.181 9.506 15.539 15.476 7.21 7.727 7.48 7.584 7.519 7.654 7.659 7.75 7.671 7.618 7.819 7.643 7.592 7.592 7.566 7.597 7.679 7.694 7.74 7.672 7.685 7.724 7.65 7.602 7.634 7.574 7.558 7.476 7.615 7.608 7.463 7.491 7.722 7.787 7.724 7.463 7.463 7.463 7.642 7.69 7.746 7.551 7.817 7.928 8.212 7.959 7.711 7.888 8.033 8.049 7.86 7.794 7.679 9.47 9.284 9.298 9.261 9.277 9.262 8.697 8.624 8.624 8.904 9.168 9.345 9.49 9.545 9.633 9.788 8.404 8.404 8.404 8.418 8.641 8.423 8.518
-9999 -9999 -9999 -9999 -9999 -9999 -9999 -9999 -9999 -9999 -9999 -9999 -9999 -9999 -9999 -9999 -9999 -9999 -9999 -9999 -9999 -9999 -9999 -9999 -9999 -9999 -9999 -9999 -9999 -9999 -9999 -9999 -9999 -9999 -9999 -9999 -9999 -9999 -9999 -9999 -9999 -9999 -9999 -9999 -9999 -9999 -9999 -9999 -9999 -9999 -9999 -9999 -9999 -9999 -9999 -9999 -9999 -9999 -9999 -9999 -9999 -9999 -9999 -9999 -9999 -9999 -9999 -9999 -9999 -9999 -9999 -9999 -9999 -9999 -9999 -9999 -9999 -9999 -9999 -9999 -9999 -9999 -9999 -9999 -9999 -9999 -9999 -9999 -9999 -9999 -9999 -9999 -9999 -9999 -9999 -9999 -9999 -9999 -9999 -9999 -9999 -9999 -9999 -9999 -9999 -9999 -9999 -9999 -9999 -9999 -9999 -9999 -9999 -9999 -9999 -9999 -9999 -9999 -9999 -9999 -9999 -9999 -9999 -9999 -9999 -9999 -9999 -9999 -9999 -9999 -9999 -9999 -9999 -9999 -9999 -9999 -9999 -9999 -9999 -9999 -9999 -9999 -9999 7.818 7.565 7.74 7.754 7.741 7.833 7.852 7.786 7.849 7.786 7.795 7.786 7.786 8.516 7.878 7.907 7.892 7.949 7.888 7.831 7.909 7.881 7.798 7.916 7.951 8.332 7.955 8.465 8.489 8.125 8.322 8.389 8.506 8.609 8.42 8.487 8.58 8.564 8.792 7.884 8.742 8.368 8.348 8.704 8.748 8.511 8.41 8.667 8.594 8.643 8.553 8.553 8.553 8.643 8.715 8.847 8.863 9.054 8.553 8.949 8.708 8.708 8.673 8.673 8.673 8.673 8.673 8.773 8.773 8.904 9.059 9.381 9.686 9.669 9.441 9.097 8.78 8.775 8.777 8.663 8.663 8.663 8.663 8.663 8.663 8.663 8.663 8.73 8.663 8.774 8.845 8.663 8.663 8.663 8.663 8.663 8.663 8.663 8.663 8.663 8.663 8.663 8.663 9.184 8.663 8.663 8.786 8.67 8.681 8.75 8.663 8.663 8.663 8.663 8.663 8.663 8.663 8.663 8.663 8.663 8.663 8.663 8.663 8.663 8.663 8.663 8.753 8.914 8.83 8.85 8.818 8.877 8.691 8.865 9.117 8.726 8.726 8.726 8.726 8.769 8.726 8.979 8.934 8.798 8.798 8.984 9.029 8.798 9.047 8.798 8.984 8.798 8.981 8.798 8.798 9.29 9.306 9.353 9.268 9.257 8.537 8.537 8.537 9.385 9.383 9.277 9.052 9.344 8.971 8.962 9.012 8.997 8.867 8.851 8.759 8.719 8.58 8.101 9.058 9.14 8.969 8.101 8.362 8.171 8.101 8.514 8.186 8.97 8.735 8.751 8.177 8.149 8.101 8.101 8.283 8.101 8.153 8.258 8.219 8.115 8.101 8.101 8.101 8.332 8.22 8.129 9.234 8.606 8.101 8.423 8.336 8.34 8.201 8.146 8.185 8.176 8.101 8.101 8.101 8.101 8.101 8.101 8.101 8.101 8.101 8.101 8.101 8.101 8.101 8.101 8.101 8.101 8.101 8.101 8.101 8.101 8.101 8.101 8.101 8.101 8.101 8.101 8.101 8.101 8.101 8.101 8.101 8.101 8.101 8.101 8.101 8.101 8.101 8.101 8.101 8.101 8.101 8.101 8.101 8.101 8.843 8.233 8.101 8.246 8.484 10.85 14.917 15.066 14.715 14.159 7.48 7.603 7.519 7.68 7.808 7.797 7.856 7.894 7.72 7.664 7.796 7.713 7.767 7.634 7.744 7.743 7.722 7.746 7.722 7.683 7.705 7.633 7.586 7.554 7.612 7.775 7.595 7.463 7.499 7.463 7.733 7.481 7.463 8.086 8.071 7.463 7.972 7.551 7.639 7.67 7.888 7.945 7.796 7.839 7.969 8.072 8.072 7.969 7.679 7.795 9.452 9.284 9.298 9.271 9.261 9.25 8.687 8.624 8.624 8.624 8.624 8.785 9.068 9.292 9.487 9.8 8.593 8.404 8.404 8.459 8.548 8.438 8.384
-9999 -9999 -9999 -9999 -9999 -9999 -9999 -9999 -9999 -9999 -9999 -9999 -9999 -9999 -9999 -9999 -9999 -9999 -9999 -9999 -9999 -9999 -9999 -9999 -9999 -9999 -9999 -9999 -9999 -9999 -9999 -9999 -9999 -9999 -9999 -9999 -9999 -9999 -9999 -9999 -9999 -9999 -9999 -9999 -9999 -9999 -9999 -9999 -9999 -9999 -9999 -9999 -9999 -9999 -9999 -9999 -9999 -9999 -9999 -9999 -9999 -9999 -9999 -9999 -9999 -9999 -9999 -9999 -9999 -9999 -9999 -9999 -9999 -9999 -9999 -9999 -9999 -9999 -9999 -9999 -9999 -9999 -9999 -9999 -9999 -9999 -9999 -9999 -9999 -9999 -9999 -9999 -9999 -9999 -9999 -9999 -9999 -9999 -9999 -9999 -9999 -9999 -9999 -9999 -9999 -9999 -9999 -9999 -9999 -9999 -9999 -9999 -9999 -9999 -9999 -9999 -9999 -9999 -9999 -9999 -9999 -9999 -9999 -9999 -9999 -9999 -9999 -9999 -9999 -9999 -9999 -9999 -9999 -9999 -9999 -9999 -9999 -9999 -9999 -9999 -9999 -9999 -9999 -9999 7.89 7.659 7.711 7.753 7.936 7.82 7.786 7.786 8.085 7.861 7.786 7.786 8.699 7.874 7.905 7.888 7.888 8.771 7.878 7.831 7.798 7.924 7.888 7.959 8.334 7.955 8.509 8.459 8.127 8.45 8.342 8.617 8.621 8.495 8.59 8.462 8.575 8.56 8.802 7.884 8.661 8.348 8.379 8.407 8.41 8.53 8.58 8.553 8.553 8.553 8.692 8.586 8.749 8.691 8.816 8.842 8.788 8.553 8.882 8.972 9.007 8.867 8.842 8.819 8.757 8.877 8.949 8.963 9.098 9.116 9.217 9.854 9.283 9.283 9.184 8.95 8.898 8.885 8.779 8.663 8.663 8.663 8.721 8.663 8.684 8.774 8.939 8.762 8.802 9.099 8.835 8.726 8.823 8.692 8.895 8.664 8.663 8.663 8.663 8.663 8.663 8.663 8.839 8.663 8.68 8.716 8.685 8.663 8.663 8.663 8.663 8.663 8.663 8.663 8.663 8.663 8.663 8.663 8.663 8.663 8.663 8.663 8.663 8.663 8.663 8.814 8.679 8.746 8.828 8.944 8.916 8.691 8.884 9.168 8.726 9.066 8.928 8.726 8.726 8.726 8.968 8.798 8.938 8.798 8.853 8.798 8.798 8.798 8.798 8.798 8.798 9.54 8.798 8.798 9.489 9.268 9.268 9.332 9.151 8.537 8.537 8.537 9.185 9.303 9.255 9.118 9.279 9.278 8.896 8.856 8.905 8.83 8.792 8.732 8.677 8.496 8.101 8.798 8.986 8.592 8.101 8.101 8.101 8.281 8.494 8.322 8.947 8.755 8.267 8.56 8.744 8.101 8.135 8.265 8.156 8.137 8.288 8.115 8.321 8.298 8.161 8.299 8.144 8.129 8.181 8.957 8.443 8.101 8.43 8.101 8.101 8.101 8.101 8.101 8.101 8.101 8.101 8.101 8.101 8.101 8.101 8.352 8.349 8.331 8.12 8.101 8.101 8.101 8.101 8.101 8.101 8.101 8.101 8.101 8.101 8.101 8.101 8.101 8.101 8.101 8.101 8.101 8.101 8.101 8.101 8.101 8.101 8.101 8.101 8.101 9.229 8.101 8.101 8.101 8.101 8.101 8.101 8.101 8.101 8.101 8.101 8.101 8.964 8.101 8.101 8.101 8.101 14.395 14.18 13.88 13.106 12.327 7.602 7.705 7.705 7.856 7.91 7.926 7.797 7.664 7.914 7.76 7.71 7.804 7.852 7.89 7.805 7.805 7.801 7.815 7.744 7.656 7.715 7.69 7.613 7.66 7.463 7.579 7.463 7.563 7.476 7.463 7.463 7.763 8.464 7.913 7.551 8.217 7.816 7.771 7.771 7.771 7.872 8.012 8.346 8.396 8.292 7.75 7.763 9.377 9.284 9.299 9.206 9.239 9.218 8.624 8.624 8.624 8.957 9.23 9.398 9.431 9.475 9.609 8.915 8.65 8.496 8.549 8.539 8.495 8.508 8.496
