ncols         280
nrows         55
xllcorner     282705
yllcorner     3285915
cellsize      30
NODATA_value  -9999
-9999 -9999 -9999 -9999 -9999 -9999 -9999 -9999 -9999 -9999 -9999 -9999 -9999 -9999 -9999 -9999 -9999 8.149 8.582 9.366 9.127 8.341 8.341 8.341 8.341 8.341 8.341 8.341 8.341 8.341 8.341 8.341 8.341 8.341 11.091 16.024 12.764 12.764 12.764 12.764 12.764 12.764 12.764 13.495 13.712 14.003 13.867 13.99 13.968 13.894 13.785 13.631 13.686 13.838 13.711 15.798 10.511 7.715 8.013 7.826 7.68 8.04 8.073 8.129 8.148 7.8 7.91 7.741 7.802 7.699 7.933 7.531 7.525 8.135 8.225 7.849 8.231 8.247 7.881 8.233 8.142 8.124 8.124 8.139 7.605 8.314 8.332 8.322 8.333 3.797 3.292 2.863 2.863 2.863 2.863 4.127 2.863 5.934 5.163 4.457 5.634 6.269 6.697 6.774 6.822 7.555 7.537 7.612 7.926 8.24 8.035 7.582 7.924 7.843 7.844 7.862 8.01 7.892 7.845 7.845 8.023 7.988 7.982 8.005 7.961 8.11 8.099 8.258 8.229 8.3 8.23 8.282 8.269 8.348 8.122 8.519 8.351 8.451 8.313 8.331 8.336 8.122 8.166 8.331 8.081 8.215 8.215 8.586 8.606 8.247 8.135 7.919 8.086 8.136 8.284 8.087 8.517 8.481 8.321 7.57 7.502 8.292 7.861 8.1 8.231 8.169 8.201 8.34 8.196 7.938 8.169 8.302 8.38 8.465 8.422 8.336 8.517 8.49 8.489 8.567 8.583 8.659 8.758 8.679 8.775 8.855 8.62 9.058 9 8.66 8.867 8.667 8.746 8.805 8.788 8.767 8.807 9.131 9.088 9.07 8.96 8.948 8.733 8.96 9.02 8.951 -9999 -9999 -9999 -9999 -9999 -9999 -9999 -9999 -9999 -9999 -9999 -9999 -9999 -9999 -9999 -9999 -9999 -9999 -9999 -9999 -9999 -9999 -9999 -9999 -9999 -9999 -9999 -9999 -9999 -9999 -9999 -9999 -9999 -9999 -9999 -9999 -9999 -9999 -9999 -9999 -9999 -9999 -9999 -9999 -9999 -9999 -9999 -9999 -9999 -9999 -9999 -9999 -9999 -9999 -9999 -9999 -9999 -9999 -9999 -9999 -9999 -9999 -9999 -9999 -9999 -9999 -9999 -9999 -9999 -9999 -9999 -9999 -9999 -9999
-9999 -9999 -9999 -9999 -9999 -9999 -9999 -9999 -9999 -9999 -9999 -9999 -9999 -9999 -9999 -9999 -9999 -9999 8.149 8.899 9.243 9.222 8.341 8.341 8.341 8.341 8.341 8.341 8.341 8.341 8.341 8.341 8.341 10.447 15.775 12.803 12.905 12.764 12.764 12.764 12.764 12.764 13.26 13.511 13.629 13.696 13.811 13.689 13.748 13.609 13.621 13.528 13.587 13.642 13.596 15.779 10.628 7.836 8.043 7.983 8.095 8.191 8.1 8.04 8.115 7.827 7.935 7.95 7.925 7.882 7.972 7.696 7.525 8.168 8.25 7.873 8.156 8.178 7.916 8.111 8.19 8.124 8.276 8.383 7.694 8.281 8.142 8.06 8.06 3.699 3.296 2.863 2.863 3.472 2.863 4.286 2.863 5.841 5.954 5.377 4.457 6.042 6.742 6.892 6.774 7.578 7.79 7.689 8.1 8.131 8.073 7.612 7.865 8.019 8.02 8.059 8.1 7.916 8.062 7.989 7.845 7.91 8.049 7.965 7.953 8.056 8.073 8.122 8.267 8.183 8.248 8.278 8.299 8.379 8.199 8.414 8.427 8.477 8.297 8.397 8.297 8.245 8.174 8.117 8.135 8.356 8.348 8.548 8.386 8.128 8.128 7.919 8.101 8.25 8.132 8.05 8.579 8.544 8.599 7.832 7.96 7.502 7.502 7.989 8.02 8.093 8.026 8.186 8.191 8.112 8.335 8.302 8.302 8.302 8.336 8.478 8.517 8.482 8.678 8.872 8.518 8.749 8.743 8.732 8.888 8.892 8.778 8.926 8.893 8.674 8.914 8.667 8.783 8.866 8.767 8.836 8.936 9.124 9.107 9.038 9.016 8.976 8.951 8.733 8.924 8.689 8.818 8.843 -9999 -9999 -9999 -9999 -9999 -9999 -9999 -9999 -9999 -9999 -9999 -9999 -9999 -9999 -9999 -9999 -9999 -9999 -9999 -9999 -9999 -9999 -9999 -9999 -9999 -9999 -9999 -9999 -9999 -9999 -9999 -9999 -9999 -9999 -9999 -9999 -9999 -9999 -9999 -9999 -9999 -9999 -9999 -9999 -9999 -9999 -9999 -9999 -9999 -9999 -9999 -9999 -9999 -9999 -9999 -9999 -9999 -9999 -9999 -9999 -9999 -9999 -9999 -9999 -9999 -9999 -9999 -9999 -9999 -9999 -9999 -9999
-9999 -9999 -9999 -9999 -9999 -9999 -9999 -9999 -9999 -9999 -9999 -9999 -9999 -9999 -9999 -9999 -9999 -9999 -9999 8.149 9.079 9.163 8.838 8.341 8.341 8.341 8.341 8.341 8.341 8.341 8.341 8.341 9.74 15.175 13.349 12.781 12.764 12.764 12.764 12.764 12.764 13.298 13.226 13.38 13.569 13.61 13.583 13.642 13.494 13.399 13.349 13.404 13.792 13.632 13.513 15.748 10.584 7.836 8.109 8.165 8.147 8.18 8.088 7.991 8.158 7.966 7.94 7.863 7.863 7.891 7.845 7.568 7.525 8.207 8.293 7.873 8.281 8.281 7.916 8.21 8.111 8.319 8.393 8.343 7.694 8.302 8.282 8.335 8.276 3.841 3.337 2.863 2.863 4.379 2.863 3.119 2.863 5.91 6.024 4.457 5.113 5.884 6.322 6.982 7.209 7.583 7.816 7.901 8.119 8.086 7.919 7.878 7.937 7.865 7.968 7.948 8.202 7.978 7.954 8.073 7.907 7.982 7.953 8.06 7.953 8.133 8.056 8.056 8.114 8.273 8.417 8.413 8.472 8.469 8.199 8.368 8.368 8.436 8.297 8.297 8.315 8.239 8.221 8.209 8.194 8.369 8.434 8.361 8.348 8.175 8.175 7.919 8.05 8.05 8.05 8.05 8.504 8.407 8.424 8.408 8.014 8.183 7.537 7.502 7.502 7.891 7.997 8.22 7.924 8.107 8.321 8.447 8.427 8.438 8.469 8.483 8.45 8.492 8.523 8.534 8.518 9.002 8.854 8.784 8.788 8.794 8.956 8.995 8.864 8.792 8.847 8.732 8.64 8.909 8.735 8.77 8.607 8.607 8.607 8.607 8.607 8.607 8.607 8.838 8.823 8.852 9.408 9.19 9.047 -9999 -9999 -9999 -9999 -9999 -9999 -9999 -9999 -9999 -9999 -9999 -9999 -9999 -9999 -9999 -9999 -9999 -9999 -9999 -9999 -9999 -9999 -9999 -9999 -9999 -9999 -9999 -9999 -9999 -9999 -9999 -9999 -9999 -9999 -9999 -9999 -9999 -9999 -9999 -9999 -9999 -9999 -9999 -9999 -9999 -9999 -9999 -9999 -9999 -9999 -9999 -9999 -9999 -9999 -9999 -9999 -9999 -9999 -9999 -9999 -9999 -9999 -9999 -9999 -9999 -9999 -9999 -9999 -9999 -9999 -9999
-9999 -9999 -9999 -9999 -9999 -9999 -9999 -9999 -9999 -9999 -9999 -9999 -9999 -9999 -9999 -9999 -9999 -9999 -9999 8.149 8.413 9.072 8.829 8.341 8.609 8.681 8.749 8.376 8.535 8.341 8.341 8.846 14.633 13.473 12.915 12.764 12.764 12.764 12.764 12.764 12.954 13.05 13.222 13.08 13.225 13.264 13.357 13.349 13.29 13.188 13.252 13.364 13.464 13.729 13.513 15.73 10.471 7.836 7.975 8.14 8.117 8.023 7.984 7.984 7.96 7.966 7.909 7.863 7.929 7.832 7.832 7.605 7.681 7.944 8.262 8.189 8.185 8.247 8.217 8.236 8.155 8.22 8.391 8.332 7.75 8.141 8.035 7.946 7.877 3.794 3.284 2.863 2.863 4.12 2.863 2.863 2.863 5.849 6.367 5.608 4.457 5.944 6.484 7.054 7.334 7.693 7.657 7.788 8.057 8.153 8.079 7.755 7.955 8.066 8.051 8.032 7.948 7.907 7.907 7.907 7.907 7.907 7.971 7.953 7.953 8.083 8.056 8.073 8.173 8.181 8.256 8.256 8.354 8.642 8.199 8.455 8.368 8.498 8.304 8.306 8.393 8.295 8.261 8.297 8.234 8.388 8.391 8.331 8.366 8.175 8.21 7.919 8.506 8.507 8.291 8.05 8.279 8.374 8.405 8.037 8.014 8.07 7.826 8.033 7.809 7.502 7.858 7.924 8.102 7.924 8.298 8.399 8.392 8.411 8.437 8.45 8.476 8.45 8.5 8.5 8.538 8.635 8.906 8.986 8.812 8.825 9.028 9.023 8.985 8.802 8.81 8.701 8.64 8.747 8.735 8.74 8.911 9.127 9.118 9.142 9.052 9.048 8.96 8.607 8.61 8.784 9.339 9.559 9.365 9.047 9.262 -9999 -9999 -9999 -9999 -9999 -9999 -9999 -9999 -9999 -9999 -9999 -9999 -9999 -9999 -9999 -9999 -9999 -9999 -9999 -9999 -9999 -9999 -9999 -9999 -9999 -9999 -9999 -9999 -9999 -9999 -9999 -9999 -9999 -9999 -9999 -9999 -9999 -9999 -9999 -9999 -9999 -9999 -9999 -9999 -9999 -9999 -9999 -9999 -9999 -9999 -9999 -9999 -9999 -9999 -9999 -9999 -9999 -9999 -9999 -9999 -9999 -9999 -9999 -9999 -9999 -9999 -9999 -9999 -9999
-9999 -9999 -9999 -9999 -9999 -9999 -9999 -9999 -9999 -9999 -9999 -9999 -9999 -9999 -9999 -9999 -9999 -9999 -9999 -9999 8.149 8.795 8.942 8.569 8.341 8.709 8.86 8.935 9.099 8.608 8.45 14.315 13.858 12.875 12.764 12.764 12.764 12.764 12.764 12.916 12.811 13.18 12.82 13.299 13.075 13.069 13.096 13.159 13.009 13.07 13.07 13.115 13.49 13.513 13.588 15.739 10.454 7.863 7.977 8.151 8.136 8.032 8.188 8.144 8.027 7.911 8.106 7.963 8.031 7.928 8.029 7.622 7.632 7.673 8.14 8.469 7.85 8.094 8.238 8.23 8.164 8.295 8.27 8.332 7.686 8.298 8.314 8.331 8.24 3.83 3.264 2.863 2.863 2.876 2.863 2.863 2.863 5.99 6.361 5.957 4.457 6.337 6.74 6.866 7.01 7.213 7.387 7.437 7.555 7.628 7.628 7.856 7.963 7.955 8.14 8.033 8.026 7.907 8.067 7.953 8.005 7.907 8.037 8.006 7.953 8.322 8.115 8.162 8.145 8.218 8.349 8.282 8.492 8.461 8.199 8.416 8.506 8.548 8.332 8.447 8.446 8.51 8.409 8.446 8.273 8.297 8.425 8.279 8.29 8.243 8.264 7.919 8.302 8.447 8.257 8.05 8.27 8.4 8.408 8.124 8.049 8.104 7.968 7.879 8.044 8.123 7.502 7.502 8.071 7.95 8.172 8.35 8.436 8.52 8.561 8.561 8.694 8.631 8.897 8.786 8.687 8.642 8.844 8.84 8.881 9.037 8.92 8.803 8.798 8.822 8.824 8.87 8.622 8.843 8.799 8.735 9.021 9.085 8.958 9.136 9.132 8.999 8.952 8.607 8.902 8.692 9.567 9.549 9.671 9.739 9.24 9.049 -9999 -9999 -9999 -9999 -9999 -9999 -9999 -9999 -9999 -9999 -9999 -9999 -9999 -9999 -9999 -9999 -9999 -9999 -9999 -9999 -9999 -9999 -9999 -9999 -9999 -9999 -9999 -9999 -9999 -9999 -9999 -9999 -9999 -9999 -9999 -9999 -9999 -9999 -9999 -9999 -9999 -9999 -9999 -9999 -9999 -9999 -9999 -9999 -9999 -9999 -9999 -9999 -9999 -9999 -9999 -9999 -9999 -9999 -9999 -9999 -9999 -9999 -9999 -9999 -9999 -9999 -9999 -9999
-9999 -9999 -9999 -9999 -9999 -9999 -9999 -9999 -9999 -9999 -9999 -9999 -9999 -9999 -9999 -9999 -9999 -9999 -9999 -9999 8.149 8.52 8.829 8.981 8.959 8.341 9.315 9.03 9.035 8.45 14.369 14.224 12.914 13.009 12.764 12.764 12.764 12.764 12.764 12.838 12.764 13.012 12.86 12.82 12.769 13.215 12.948 13.009 13.217 13.07 13.234 13.238 13.477 13.463 13.422 15.631 10.453 7.876 7.932 8.078 8.15 8.087 8.032 8.106 7.971 8.221 8.077 7.773 7.995 7.735 7.894 7.669 7.622 7.77 8.127 8.301 7.85 8.114 8.24 8.318 8.201 8.186 8.364 8.542 7.686 8.31 8.242 8.303 8.24 3.74 3.225 2.863 2.863 2.863 2.863 4.289 2.863 6.295 6.635 6.092 4.457 6.312 6.986 7.4 7.148 7.732 7.733 7.79 8.08 8.17 7.946 7.902 8.015 8.006 8.041 8.054 8.117 8.072 8.028 7.983 8.048 8.039 8.079 8.046 7.953 8.099 8.119 8.276 8.375 8.33 8.351 8.358 8.283 8.329 8.199 8.26 8.48 8.556 8.419 8.3 8.567 8.652 8.648 8.861 8.291 8.293 8.257 8.375 8.341 8.514 8.259 7.919 7.97 8.077 8.053 8.277 8.305 8.399 8.408 8.063 8.049 8.053 8.02 7.974 8.255 8.37 8.345 8.135 7.502 7.785 8.067 8.1 8.267 8.314 8.314 8.448 8.513 8.513 8.583 8.583 8.583 8.583 8.583 8.583 8.583 8.583 8.583 8.583 8.583 8.583 8.583 8.583 8.583 8.583 8.583 8.583 8.583 8.583 8.583 8.583 8.583 8.583 8.583 8.583 8.881 8.851 9.908 9.91 9.642 9.671 9.865 9.621 9.149 9.455 -9999 -9999 -9999 -9999 -9999 -9999 -9999 -9999 -9999 -9999 -9999 -9999 -9999 -9999 -9999 -9999 -9999 -9999 -9999 -9999 -9999 -9999 -9999 -9999 -9999 -9999 -9999 -9999 -9999 -9999 -9999 -9999 -9999 -9999 -9999 -9999 -9999 -9999 -9999 -9999 -9999 -9999 -9999 -9999 -9999 -9999 -9999 -9999 -9999 -9999 -9999 -9999 -9999 -9999 -9999 -9999 -9999 -9999 -9999 -9999 -9999 -9999 -9999 -9999 -9999 -9999
-9999 -9999 -9999 -9999 -9999 -9999 -9999 -9999 -9999 -9999 -9999 -9999 -9999 -9999 -9999 -9999 -9999 -9999 -9999 -9999 -9999 8.149 8.811 8.967 8.988 8.731 8.341 9.584 8.45 14.3 14.353 13.344 13.594 12.764 12.764 12.764 12.764 12.764 12.764 12.764 12.764 12.764 12.764 12.804 12.769 12.815 13.164 12.988 13.248 13.027 13.056 13.253 13.182 13.24 13.274 15.645 10.377 7.885 8.11 8.169 8.16 8.206 8.149 8.051 8.243 8.308 8.209 7.683 7.922 7.877 7.735 7.622 7.729 7.622 8.13 8.184 7.792 8.165 8.25 8.244 8.186 8.286 8.294 7.887 7.686 7.99 7.99 7.944 7.842 5.16 4.856 3.76 2.982 2.863 4.228 7.073 6.959 6.442 6.4 4.98 4.457 6.48 6.844 7.249 7.279 7.551 7.551 7.609 7.673 7.684 7.684 7.684 7.71 7.742 7.742 7.742 7.75 7.75 7.75 7.847 7.929 7.97 8.017 7.998 7.971 7.979 7.991 8.064 8.118 8.123 8.205 8.3 8.32 8.338 8.297 8.25 8.25 8.25 8.25 8.25 8.25 8.25 8.25 8.281 8.301 8.202 8.202 8.141 8.08 8.015 7.919 7.919 7.919 7.919 7.919 7.919 7.919 8.054 8.057 8.049 8.049 8.081 8.114 8.16 8.372 8.165 7.894 7.894 7.502 8.435 8.246 8.346 8.323 8.599 8.632 8.611 8.664 8.703 8.678 8.681 8.709 8.893 8.902 8.834 8.951 8.901 9.14 8.99 8.82 8.836 8.897 8.892 8.781 8.884 8.986 8.891 9.075 9.271 9.209 9.225 9.2 9.276 9.215 8.583 9.069 9.258 9.761 9.707 9.624 9.664 9.698 9.642 9.529 9.343 9.205 -9999 -9999 -9999 -9999 -9999 -9999 -9999 -9999 -9999 -9999 -9999 -9999 -9999 -9999 -9999 -9999 -9999 -9999 -9999 -9999 -9999 -9999 -9999 -9999 -9999 -9999 -9999 -9999 -9999 -9999 -9999 -9999 -9999 -9999 -9999 -9999 -9999 -9999 -9999 -9999 -9999 -9999 -9999 -9999 -9999 -9999 -9999 -9999 -9999 -9999 -9999 -9999 -9999 -9999 -9999 -9999 -9999 -9999 -9999 -9999 -9999 -9999 -9999 -9999 -9999
-9999 -9999 -9999 -9999 -9999 -9999 -9999 -9999 -9999 -9999 -9999 -9999 -9999 -9999 -9999 -9999 -9999 -9999 -9999 -9999 -9999 -9999 8.45 8.732 8.826 9.084 8.796 8.542 13.725 14.707 12.918 12.986 13.306 12.764 12.764 12.764 14.004 12.764 12.794 12.764 12.764 12.764 12.764 12.764 12.816 12.837 12.764 12.802 12.856 12.95 13.121 13.129 13.172 13.059 13.061 15.546 10.403 7.807 8.091 8.157 8.076 8.052 8.072 8.023 7.974 8.054 8.028 7.671 8.201 7.954 7.751 7.699 7.671 7.722 8.064 8.131 7.671 8.093 8.18 8.355 8.187 8.32 8.149 8.192 7.686 8.132 8.343 8.135 8.233 8.435 8.162 6.546 3.14 2.863 4.672 7.791 7.935 7.227 5.987 4.959 5.418 7.278 7.153 8.1 7.948 8.04 7.971 8.002 8.444 8.32 8.234 8.225 8.418 7.939 8.034 8.085 7.985 7.98 8.314 8.176 8.078 8.073 8.217 8.132 7.968 8.335 8.063 8.354 8.111 8.206 8.274 8.215 8.37 8.322 8.358 8.416 8.541 8.671 8.282 8.5 8.711 8.587 8.369 8.561 8.202 8.202 8.612 8.417 8.518 8.358 8.169 7.96 8.007 8.139 8.221 8.13 8.007 7.919 8.223 8.523 8.205 8.263 8.082 8.321 8.477 8.518 8.319 8.468 7.687 7.502 8.983 9.404 9.397 9.471 9.097 8.845 8.797 8.908 8.852 8.845 8.788 8.888 8.886 8.911 8.956 8.885 8.773 8.773 8.814 8.88 8.795 8.823 8.773 8.773 8.773 8.773 8.773 8.773 8.943 9.582 9.595 9.26 9.183 8.583 9.061 8.955 8.955 8.955 8.955 8.955 8.955 8.955 8.955 9.005 9.065 9.179 -9999 -9999 -9999 -9999 -9999 -9999 -9999 -9999 -9999 -9999 -9999 -9999 -9999 -9999 -9999 -9999 -9999 -9999 -9999 -9999 -9999 -9999 -9999 -9999 -9999 -9999 -9999 -9999 -9999 -9999 -9999 -9999 -9999 -9999 -9999 -9999 -9999 -9999 -9999 -9999 -9999 -9999 -9999 -9999 -9999 -9999 -9999 -9999 -9999 -9999 -9999 -9999 -9999 -9999 -9999 -9999 -9999 -9999 -9999 -9999 -9999 -9999 -9999 -9999
-9999 -9999 -9999 -9999 -9999 -9999 -9999 -9999 -9999 -9999 -9999 -9999 -9999 -9999 -9999 -9999 -9999 -9999 -9999 -9999 -9999 -9999 8.149 8.473 8.757 8.866 8.553 12.069 15.996 13.015 12.764 12.764 13.142 12.764 12.764 12.764 12.877 12.86 12.764 12.764 12.764 12.764 12.764 12.764 12.807 12.764 12.764 12.83 12.764 12.764 13.01 13.084 13.045 12.997 12.962 15.404 10.404 7.769 7.923 7.94 7.94 7.94 7.94 8.034 7.914 7.914 7.899 7.671 7.885 7.699 7.699 7.737 7.671 7.671 7.812 7.671 8.144 8.084 8.141 8.096 8.165 8.153 8.207 8.274 7.686 7.987 8.391 8.092 8.429 8.421 8.305 6.75 3.387 2.863 5.434 7.856 7.895 7.479 5.979 5.171 5.876 7.688 7.36 8.14 7.994 8.02 8.013 7.94 8.124 8.089 7.897 8.313 8.4 8.16 8.056 8.235 8.048 7.929 8.248 8.256 8.073 8.073 8.086 8.178 7.968 8.327 8.13 8.215 8.236 8.389 8.44 8.257 8.418 8.322 8.411 8.41 8.722 8.71 8.507 8.48 8.54 8.511 8.576 8.479 8.202 8.202 8.617 8.617 8.391 8.353 8.393 8.682 8.6 8.596 8.232 8.027 7.919 7.919 8.331 8.499 8.08 8.08 8.08 8.18 8.604 8.643 8.613 8.635 7.888 8.336 7.507 9.406 9.824 9.736 9.435 8.773 8.773 8.791 8.827 8.778 8.778 8.847 8.779 8.883 8.823 8.913 8.773 8.773 8.773 8.773 8.773 8.773 8.773 8.773 8.773 8.773 8.773 8.773 9.528 9.558 9.551 9.511 9.04 8.583 8.955 9.015 8.955 9.219 8.955 8.955 8.955 8.955 8.997 9.043 9.001 9.19 9.129 9.023 -9999 -9999 -9999 -9999 -9999 -9999 -9999 -9999 -9999 -9999 -9999 -9999 -9999 -9999 -9999 -9999 -9999 -9999 -9999 -9999 -9999 -9999 -9999 -9999 -9999 -9999 -9999 -9999 -9999 -9999 -9999 -9999 -9999 -9999 -9999 -9999 -9999 -9999 -9999 -9999 -9999 -9999 -9999 -9999 -9999 -9999 -9999 -9999 -9999 -9999 -9999 -9999 -9999 -9999 -9999 -9999 -9999 -9999 -9999 -9999 -9999 -9999
-9999 -9999 -9999 -9999 -9999 -9999 -9999 -9999 -9999 -9999 -9999 -9999 -9999 -9999 -9999 -9999 -9999 -9999 -9999 -9999 -9999 -9999 -9999 8.221 8.463 8.612 10.592 15.75 13.387 12.764 12.764 12.764 12.764 13.86 12.764 14.46 12.94 12.774 12.764 12.764 12.764 12.764 12.764 12.764 12.764 12.764 12.819 12.764 12.764 12.764 14.166 13.023 12.972 12.939 12.906 15.438 10.35 7.769 8.06 8.166 8.179 8.072 8.04 8.12 8.212 8.095 7.887 7.671 7.81 7.898 7.767 7.724 7.728 7.671 7.671 8.15 8.002 8.278 7.964 7.964 8.21 8.195 8.009 7.993 7.686 8.03 8.284 8.06 8.207 8.393 8.002 6.262 3.794 2.863 6.993 8.093 7.927 7.405 5.905 5.126 7.07 7.161 7.006 8.195 8.141 7.852 8.212 8.031 7.733 7.733 7.87 7.733 8.143 8.041 7.934 8.119 7.99 7.929 8.139 8.195 8.404 8.453 8.272 8.056 7.953 8.164 8.189 8.353 8.542 8.292 8.383 8.237 8.495 8.523 8.445 8.501 8.353 8.353 8.44 8.441 8.441 8.515 8.423 8.345 8.202 8.202 8.287 8.287 8.287 8.287 8.309 8.296 8.297 8.296 8.304 8.185 7.919 7.919 8.04 8.091 8.08 8.141 8.109 8.511 8.558 8.596 8.636 8.549 8.465 7.893 7.507 8.949 9.68 9.825 9.619 8.778 8.773 8.773 8.805 8.778 8.778 8.827 8.773 8.824 8.823 8.823 8.786 8.773 8.773 8.773 8.773 8.773 8.773 8.773 8.773 8.773 8.773 8.773 9.506 9.576 9.572 9.102 8.871 8.594 9.131 9.026 8.955 9.021 8.999 8.955 8.955 8.955 9.067 8.967 8.967 8.94 9.075 8.98 9.195 -9999 -9999 -9999 -9999 -9999 -9999 -9999 -9999 -9999 -9999 -9999 -9999 -9999 -9999 -9999 -9999 -9999 -9999 -9999 -9999 -9999 -9999 -9999 -9999 -9999 -9999 -9999 -9999 -9999 -9999 -9999 -9999 -9999 -9999 -9999 -9999 -9999 -9999 -9999 -9999 -9999 -9999 -9999 -9999 -9999 -9999 -9999 -9999 -9999 -9999 -9999 -9999 -9999 -9999 -9999 -9999 -9999 -9999 -9999 -9999 -9999
-9999 -9999 -9999 -9999 -9999 -9999 -9999 -9999 -9999 -9999 -9999 -9999 -9999 -9999 -9999 -9999 -9999 -9999 -9999 -9999 -9999 -9999 -9999 -9999 8.342 8.159 14.284 13.378 12.764 12.764 12.869 12.764 12.764 12.764 12.764 12.823 13.555 12.764 12.879 12.764 12.764 12.764 12.764 12.764 12.764 12.764 12.764 12.764 12.764 12.764 12.793 13.058 12.826 12.885 12.786 15.335 10.32 7.769 8.046 8.147 8.041 8.011 8.043 7.996 8.028 8.12 7.94 7.671 7.878 8.143 7.691 7.671 7.761 7.671 8.082 8.169 7.962 7.899 8.021 8.003 8.148 8.273 8.191 8.161 7.686 7.727 7.955 7.799 7.95 8.352 8.047 5.292 4.076 2.863 6.774 7.739 7.85 7.43 5.126 5.126 5.126 6.984 6.984 8.065 8.053 7.852 7.913 7.733 7.733 7.733 7.764 7.733 7.733 7.794 8.067 7.928 7.961 7.929 7.974 8.03 7.972 8.264 8.058 8.1 7.953 8 8.049 8.283 8.427 8.237 8.237 8.237 8.287 8.426 8.469 8.407 8.353 8.399 8.49 8.677 9.013 8.666 8.487 8.467 8.202 8.668 8.451 8.287 8.552 8.773 8.829 8.702 8.296 8.363 8.612 8.322 8.02 8.131 8.09 8.057 8.21 8.08 8.226 8.433 8.574 8.538 8.488 8.343 8.359 7.883 8.288 7.507 9.512 9.968 9.576 8.773 8.773 8.773 8.801 8.778 8.786 8.789 8.773 8.831 8.918 8.854 8.791 8.773 8.856 8.773 8.773 8.773 8.773 8.773 8.773 8.773 8.8 8.797 9.547 9.578 9.516 9.332 8.913 8.594 9.05 11.119 8.955 9.024 8.955 8.955 8.955 8.955 9.002 8.981 9.036 9.13 8.94 9.07 8.934 9.193 9.215 -9999 -9999 -9999 -9999 -9999 -9999 -9999 -9999 -9999 -9999 -9999 -9999 -9999 -9999 -9999 -9999 -9999 -9999 -9999 -9999 -9999 -9999 -9999 -9999 -9999 -9999 -9999 -9999 -9999 -9999 -9999 -9999 -9999 -9999 -9999 -9999 -9999 -9999 -9999 -9999 -9999 -9999 -9999 -9999 -9999 -9999 -9999 -9999 -9999 -9999 -9999 -9999 -9999 -9999 -9999 -9999 -9999 -9999 -9999
-9999 -9999 -9999 -9999 -9999 -9999 -9999 -9999 -9999 -9999 -9999 -9999 -9999 -9999 -9999 -9999 -9999 -9999 -9999 -9999 -9999 -9999 -9999 -9999 8.149 11.635 14.616 12.764 12.764 12.764 12.764 12.764 12.764 12.764 12.764 12.764 13.437 12.876 12.876 12.905 12.764 12.764 12.764 12.764 12.764 12.764 12.764 12.764 12.764 12.764 12.833 12.828 12.977 12.776 12.764 15.225 10.251 7.769 7.801 7.832 7.839 7.702 7.702 7.672 7.672 7.672 7.671 7.671 7.787 7.835 7.681 7.671 7.671 7.671 8 8 7.899 7.94 7.93 7.899 7.899 8.069 8.255 8.241 7.686 7.93 7.958 7.997 7.618 7.955 7.795 4.78 4.145 2.863 6.614 7.043 7.033 5.126 6.468 7.183 7.273 7.24 7.225 6.984 7.852 7.954 7.911 7.993 8.127 7.864 7.733 7.733 7.769 7.733 7.83 7.959 7.967 7.929 7.929 7.977 8.024 7.972 8.116 8.07 7.953 7.966 8.194 8.296 8.592 8.327 8.297 8.237 8.265 8.488 8.551 8.347 8.343 8.33 8.33 8.375 8.431 8.577 8.467 8.636 8.202 8.378 8.434 8.513 8.811 9.187 9.049 8.838 8.601 8.79 8.36 8.425 8.412 8.135 8.432 8.121 8.34 8.278 8.226 8.46 8.592 8.523 8.434 8.308 8.23 7.959 8.053 7.507 9.347 9.816 9.583 8.783 8.773 8.837 8.773 8.794 8.773 8.825 8.773 8.773 8.773 8.773 8.773 8.773 8.773 8.773 8.773 8.773 8.773 8.773 8.773 8.773 8.773 8.815 9.577 9.556 9.521 9.12 8.594 8.684 9.087 9 8.955 9.159 8.955 9.052 8.955 8.955 9.011 8.981 8.981 9.087 8.934 8.934 9.057 8.934 9.073 9.36 -9999 -9999 -9999 -9999 -9999 -9999 -9999 -9999 -9999 -9999 -9999 -9999 -9999 -9999 -9999 -9999 -9999 -9999 -9999 -9999 -9999 -9999 -9999 -9999 -9999 -9999 -9999 -9999 -9999 -9999 -9999 -9999 -9999 -9999 -9999 -9999 -9999 -9999 -9999 -9999 -9999 -9999 -9999 -9999 -9999 -9999 -9999 -9999 -9999 -9999 -9999 -9999 -9999 -9999 -9999 -9999 -9999 -9999
-9999 -9999 -9999 -9999 -9999 -9999 -9999 -9999 -9999 -9999 -9999 -9999 -9999 -9999 -9999 -9999 -9999 -9999 -9999 -9999 -9999 -9999 -9999 -9999 -9999 11.347 15.533 12.764 12.764 12.764 12.764 12.764 12.764 12.764 12.764 12.764 12.764 13.546 12.764 12.852 12.764 12.764 12.764 12.764 12.764 12.764 12.764 12.764 12.764 12.764 12.764 12.764 12.765 12.981 12.764 15.105 10.235 7.769 7.971 8.152 8.135 8.077 8.092 8.087 7.924 7.893 7.939 7.671 7.871 7.899 7.671 7.671 7.671 7.671 8.116 7.956 7.931 7.899 7.899 8.004 8.066 8.075 8.167 8.208 7.669 7.909 8 7.939 7.566 7.536 7.252 3.501 4.097 2.863 6.246 5.673 5.126 6.603 7.52 7.888 7.793 7.759 7.813 7.443 7.094 7.972 7.906 7.872 7.702 7.816 7.733 7.934 8.02 8.146 8.069 7.998 8.04 7.929 7.956 7.981 8.056 7.936 8.066 8.146 7.953 8.036 8.034 8.192 8.149 8.244 8.345 8.237 8.302 8.513 8.521 8.301 8.32 8.364 8.532 8.486 8.53 8.482 8.491 8.573 8.202 8.293 8.512 8.934 9.207 9.375 9.324 8.985 9.125 8.945 8.753 8.589 8.352 8.281 8.345 8.16 8.379 8.388 8.4 8.646 8.479 8.45 8.485 8.441 8.184 8.002 8.145 7.507 9.14 9.555 9.551 8.809 8.779 8.878 8.773 8.773 8.773 8.824 8.773 8.773 8.773 8.773 8.89 8.773 8.773 8.773 8.773 8.773 8.773 8.773 8.773 8.773 8.773 8.773 9.016 9.05 9.241 9.064 8.594 8.845 9.561 9.375 8.991 9.253 8.955 8.955 8.955 9.084 9.088 8.981 9.074 9.22 9.018 9.152 8.934 8.934 9.084 9.852 9.53 9.581 -9999 -9999 -9999 -9999 -9999 -9999 -9999 -9999 -9999 -9999 -9999 -9999 -9999 -9999 -9999 -9999 -9999 -9999 -9999 -9999 -9999 -9999 -9999 -9999 -9999 -9999 -9999 -9999 -9999 -9999 -9999 -9999 -9999 -9999 -9999 -9999 -9999 -9999 -9999 -9999 -9999 -9999 -9999 -9999 -9999 -9999 -9999 -9999 -9999 -9999 -9999 -9999 -9999 -9999 -9999 -9999
-9999 -9999 -9999 -9999 -9999 -9999 -9999 -9999 -9999 -9999 -9999 -9999 -9999 -9999 -9999 -9999 -9999 -9999 -9999 -9999 -9999 -9999 -9999 -9999 -9999 8.149 13.86 13.322 12.764 12.764 12.764 12.764 13.622 12.764 12.764 12.764 12.764 12.764 12.764 12.801 13.191 12.764 12.764 12.764 12.764 12.764 12.764 12.764 12.764 12.764 12.764 12.764 12.764 12.764 12.764 15.049 10.206 7.769 7.967 8.109 8.033 7.976 7.932 7.949 7.989 7.988 7.78 7.671 7.954 7.932 7.671 7.686 7.671 7.719 8.111 7.887 8.121 7.899 8.043 7.899 7.937 8.026 8.125 8.04 7.429 7.426 7.357 7.357 7.592 7.556 7.295 3.15 3.15 2.863 5.724 5.183 5.126 7.1 7.65 7.851 7.789 7.736 7.79 7.469 7.672 7.698 7.745 7.81 7.698 7.957 7.936 7.698 7.957 8.076 7.958 7.958 7.958 7.929 8.042 7.981 7.992 7.936 8.046 8.073 7.953 8.165 8.036 8.149 8.17 8.164 8.421 8.237 8.237 8.237 8.274 8.278 8.28 8.355 8.486 8.539 8.701 8.49 8.508 8.537 8.219 8.84 8.755 9.218 9.399 9.421 9.087 9.165 9.005 9.641 9.028 8.66 8.35 8.361 8.484 8.16 8.46 8.579 8.504 8.571 8.542 8.57 8.596 8.575 8.256 8.002 8.227 7.507 8.859 9.494 9.51 8.866 8.812 8.773 8.773 8.85 8.773 8.804 8.773 8.773 8.786 8.795 8.773 8.773 8.801 8.773 8.773 8.773 8.773 8.773 8.773 8.773 8.773 8.773 8.862 8.832 9.335 9.329 8.777 8.923 9.561 9.551 9 9.295 8.955 8.982 8.955 9.16 8.981 8.981 9.088 9.049 9.018 9.151 9.04 8.934 9.209 10.357 10.003 9.639 9.833 -9999 -9999 -9999 -9999 -9999 -9999 -9999 -9999 -9999 -9999 -9999 -9999 -9999 -9999 -9999 -9999 -9999 -9999 -9999 -9999 -9999 -9999 -9999 -9999 -9999 -9999 -9999 -9999 -9999 -9999 -9999 -9999 -9999 -9999 -9999 -9999 -9999 -9999 -9999 -9999 -9999 -9999 -9999 -9999 -9999 -9999 -9999 -9999 -9999 -9999 -9999 -9999 -9999 -9999 -9999
-9999 -9999 -9999 -9999 -9999 -9999 -9999 -9999 -9999 -9999 -9999 -9999 -9999 -9999 -9999 -9999 -9999 -9999 -9999 -9999 -9999 -9999 -9999 -9999 -9999 -9999 10.566 16.012 13.151 12.764 12.764 12.764 12.764 13.917 12.764 12.764 12.764 12.764 12.764 12.764 13.957 12.764 12.787 12.764 12.764 12.764 12.764 12.764 12.764 12.764 12.764 12.764 12.764 12.764 12.764 14.909 10.083 7.769 8.062 7.972 8.106 8.021 7.995 7.867 8.049 7.871 7.925 7.671 7.966 7.905 7.835 7.671 7.671 7.756 8.043 7.887 7.928 7.899 7.943 7.866 7.913 7.837 7.842 7.666 7.44 7.559 7.641 7.648 7.254 7.352 6.717 3.15 4.26 2.863 2.863 5.549 5.126 7.293 7.649 7.729 7.801 7.761 7.736 7.721 7.629 7.78 7.698 7.698 7.698 7.698 7.698 7.712 7.885 8.08 7.958 7.96 7.973 7.929 7.929 7.936 7.961 7.936 8.018 8.057 7.953 8.28 8.128 8.251 8.153 8.164 8.313 8.237 8.237 8.237 8.39 8.343 8.387 8.396 8.355 8.485 8.535 8.474 8.474 8.405 8.247 8.553 8.605 9.011 9.392 9.427 9.453 9.412 9.269 9.424 9.673 8.93 8.701 8.505 8.608 8.16 8.639 8.62 8.568 8.598 8.472 8.472 8.604 8.492 8.435 8.002 8.584 7.507 8.72 8.912 9.011 8.773 8.773 8.773 8.773 8.773 8.773 8.782 8.773 8.781 8.773 8.773 8.818 8.773 8.881 8.783 8.773 8.773 8.773 8.773 8.773 8.773 8.773 8.773 8.832 8.912 8.989 8.777 8.777 8.777 9.605 9.442 9.08 9.326 9.01 9.223 8.955 9.195 9.167 9.072 9.021 9.018 9.172 9.242 8.997 9.046 9.119 9.948 10.361 9.893 9.639 9.755 -9999 -9999 -9999 -9999 -9999 -9999 -9999 -9999 -9999 -9999 -9999 -9999 -9999 -9999 -9999 -9999 -9999 -9999 -9999 -9999 -9999 -9999 -9999 -9999 -9999 -9999 -9999 -9999 -9999 -9999 -9999 -9999 -9999 -9999 -9999 -9999 -9999 -9999 -9999 -9999 -9999 -9999 -9999 -9999 -9999 -9999 -9999 -9999 -9999 -9999 -9999 -9999 -9999 -9999
-9999 -9999 -9999 -9999 -9999 -9999 -9999 -9999 -9999 -9999 -9999 -9999 -9999 -9999 -9999 -9999 -9999 -9999 -9999 -9999 -9999 -9999 -9999 -9999 -9999 -9999 -9999 13.465 13.573 12.764 12.764 12.764 12.764 12.764 13.219 12.764 12.764 12.764 12.764 12.764 12.764 12.954 12.764 12.764 12.764 12.764 12.764 12.764 12.764 12.764 12.764 12.764 12.764 12.764 12.764 14.741 10.041 7.752 7.951 8.114 7.992 7.986 8.041 7.867 7.883 7.903 7.899 7.671 7.875 7.931 7.671 7.713 7.671 7.944 8.077 7.887 8.041 7.974 7.966 7.883 7.771 7.839 7.735 7.62 7.469 7.578 7.66 7.678 7.252 3.15 3.15 4.227 5.346 3.222 2.863 5.987 5.125 6.353 6.939 7.289 7.534 7.817 7.849 7.629 7.812 7.855 7.802 7.955 8.064 7.763 7.821 7.999 8.197 8.189 8.254 7.97 8.05 7.929 7.929 8.132 7.936 7.936 8.126 8.082 7.953 8.129 8.318 8.201 8.125 8.199 8.237 8.237 8.237 8.237 8.273 8.674 8.504 8.446 8.663 8.514 8.595 8.474 8.598 8.49 8.268 8.506 8.506 8.75 9.139 9.379 9.317 9.428 9.1 9.1 9.262 9.1 8.625 8.505 8.683 8.178 8.574 8.569 8.57 8.587 8.723 8.634 8.446 8.446 8.443 8.002 8.678 7.507 8.75 8.855 8.773 8.773 8.878 8.773 8.773 8.773 8.773 8.773 8.773 8.773 8.773 8.773 8.773 8.773 8.896 8.82 8.773 8.97 8.986 8.888 8.86 8.773 8.98 8.951 8.94 8.976 8.955 8.828 8.777 8.777 9.13 9.195 9.119 9.199 9.175 9.362 8.955 9.108 9.061 9.018 9.051 9.018 9.081 9.317 9.263 9.209 9.197 10.283 10.789 10.376 9.69 9.715 9.728 9.848 -9999 -9999 -9999 -9999 -9999 -9999 -9999 -9999 -9999 -9999 -9999 -9999 -9999 -9999 -9999 -9999 -9999 -9999 -9999 -9999 -9999 -9999 -9999 -9999 -9999 -9999 -9999 -9999 -9999 -9999 -9999 -9999 -9999 -9999 -9999 -9999 -9999 -9999 -9999 -9999 -9999 -9999 -9999 -9999 -9999 -9999 -9999 -9999 -9999 -9999 -9999 -9999
-9999 -9999 -9999 -9999 -9999 -9999 -9999 -9999 -9999 -9999 -9999 -9999 -9999 -9999 -9999 -9999 -9999 -9999 -9999 -9999 -9999 -9999 -9999 -9999 -9999 -9999 -9999 9.11 15.475 13.303 12.764 12.764 12.764 12.764 12.764 12.764 12.764 12.764 12.764 12.764 12.764 12.764 12.764 12.874 12.764 12.764 12.764 12.764 12.764 12.764 12.764 12.764 12.764 12.764 12.764 14.624 9.858 7.728 7.706 7.671 7.671 7.671 7.671 7.671 7.671 7.671 7.671 7.671 7.793 8.025 7.671 7.671 7.671 7.983 8.208 7.887 8.195 8.022 7.914 7.827 7.703 7.703 7.734 7.682 7.358 7.257 7.241 6.707 6.331 6.426 6.495 6.358 6.824 6.359 2.863 5.096 5.191 6.744 6.997 7.385 7.651 7.624 7.994 7.828 7.64 7.833 8.001 7.861 7.899 8.034 7.861 7.83 7.99 8.089 7.962 7.962 7.962 7.929 7.929 7.998 7.991 7.936 8.04 8.053 7.953 8.181 8.129 8.121 8.121 8.34 8.354 8.237 8.409 8.476 8.32 8.484 8.605 8.825 8.637 8.514 8.592 8.632 8.788 8.731 8.304 8.587 8.499 8.676 9.037 9.039 9.372 9.468 9.1 9.1 9.1 9.248 8.629 8.505 8.564 8.299 8.584 8.686 8.569 8.622 8.694 8.593 8.446 8.522 8.44 8.002 8.601 7.507 9.116 9.588 9.141 8.82 8.962 8.773 8.773 8.773 8.773 8.773 8.773 8.773 8.773 8.773 8.95 8.773 8.773 8.773 8.773 8.891 9.182 9.184 9.267 8.773 8.897 8.897 9.491 9.358 9.452 8.793 9.34 8.777 9.12 9.162 9.105 9.165 9.115 9.323 8.955 8.977 9.042 9.018 9.018 9.056 9.178 9.398 9.301 9.197 9.434 10.441 11.096 10.657 9.976 9.69 10.054 9.964 9.903 -9999 -9999 -9999 -9999 -9999 -9999 -9999 -9999 -9999 -9999 -9999 -9999 -9999 -9999 -9999 -9999 -9999 -9999 -9999 -9999 -9999 -9999 -9999 -9999 -9999 -9999 -9999 -9999 -9999 -9999 -9999 -9999 -9999 -9999 -9999 -9999 -9999 -9999 -9999 -9999 -9999 -9999 -9999 -9999 -9999 -9999 -9999 -9999 -9999 -9999 -9999
-9999 -9999 -9999 -9999 -9999 -9999 -9999 -9999 -9999 -9999 -9999 -9999 -9999 -9999 -9999 -9999 -9999 -9999 -9999 -9999 -9999 -9999 -9999 -9999 -9999 -9999 -9999 -9999 12.377 14.485 12.764 12.764 12.764 12.764 12.764 12.764 12.764 12.764 12.764 12.764 12.764 12.764 12.764 12.764 13.653 12.764 12.764 12.764 12.764 12.764 12.764 12.764 12.764 12.764 12.764 14.549 9.698 7.743 8.061 8.045 7.99 7.961 7.942 7.877 7.893 7.774 7.825 7.671 7.731 7.949 7.671 7.671 7.671 7.886 7.888 7.832 7.85 7.839 7.889 7.706 7.703 7.703 7.718 7.694 7.339 6.954 6.895 6.656 6.602 6.619 6.488 6.385 6.699 6.879 5.419 6.501 6.716 6.642 7.175 7.394 7.524 7.817 7.765 7.668 7.741 7.83 8.044 7.951 7.832 7.832 7.832 7.83 8.209 8.217 8.142 8.09 8.159 7.929 7.947 7.99 7.953 7.968 8.228 8.024 7.953 8.109 8.06 8.121 8.159 8.259 8.423 8.237 8.382 8.335 8.363 8.414 8.54 8.557 8.59 8.762 8.701 8.592 8.709 8.547 8.328 8.394 8.555 8.713 9.013 9.411 9.391 9.375 9.1 9.1 9.141 9.256 8.505 8.505 8.628 8.299 8.605 8.569 8.569 8.671 8.627 8.686 8.446 8.541 8.469 8.071 8.471 7.507 8.76 9.632 9.397 8.951 8.929 8.773 8.773 8.773 8.773 8.773 8.773 8.942 8.773 8.773 8.773 8.773 8.948 9.015 8.773 9.096 9.119 9.017 9.147 8.773 9.247 8.973 9.452 9.441 9.358 8.866 9.451 8.777 9.217 9.088 9.019 9.042 9.039 9.152 8.955 9.004 9.188 9.018 9.018 9.332 9.182 9.228 9.356 9.322 9.418 10.307 11.367 10.709 9.693 9.69 10.068 9.927 9.939 9.926 10.08 -9999 -9999 -9999 -9999 -9999 -9999 -9999 -9999 -9999 -9999 -9999 -9999 -9999 -9999 -9999 -9999 -9999 -9999 -9999 -9999 -9999 -9999 -9999 -9999 -9999 -9999 -9999 -9999 -9999 -9999 -9999 -9999 -9999 -9999 -9999 -9999 -9999 -9999 -9999 -9999 -9999 -9999 -9999 -9999 -9999 -9999 -9999 -9999 -9999
-9999 -9999 -9999 -9999 -9999 -9999 -9999 -9999 -9999 -9999 -9999 -9999 -9999 -9999 -9999 -9999 -9999 -9999 -9999 -9999 -9999 -9999 -9999 -9999 -9999 -9999 -9999 -9999 8.149 14.525 13.427 12.764 12.764 12.764 12.764 12.764 12.764 12.764 12.764 12.764 12.764 12.764 12.764 12.764 12.764 12.764 12.764 12.764 12.764 12.764 12.764 12.764 12.764 12.764 12.764 14.479 9.595 7.748 7.881 7.944 7.923 7.862 7.854 7.821 7.787 7.736 7.675 7.671 7.806 7.671 7.671 7.671 7.671 7.962 8.058 7.832 7.832 7.805 7.909 7.976 7.822 7.815 7.525 7.431 7.431 7.102 6.889 7.058 6.9 6.909 6.804 6.818 7.042 6.952 6.138 5.419 6.909 6.899 7.53 7.678 7.844 7.966 7.853 7.95 7.745 7.868 7.685 8.01 7.896 8.037 7.864 8.152 7.902 8.106 8.062 8.05 7.929 7.929 8.03 8.089 7.953 8.03 7.984 7.953 7.953 8.022 8.055 8.164 8.136 8.331 8.398 8.287 8.521 8.444 8.335 8.598 8.678 8.648 8.663 8.665 8.819 8.592 8.67 8.728 8.356 8.328 8.424 8.689 9.042 9.481 9.46 9.445 9.453 9.452 9.481 8.74 8.505 8.505 8.666 8.352 8.657 8.675 8.6 8.652 8.603 8.54 8.478 8.486 8.41 8.12 8.509 7.507 8.653 9.763 10.119 10.321 8.92 8.773 8.773 8.773 8.773 8.773 8.773 8.93 8.773 8.773 8.773 8.773 8.902 8.926 8.773 9.002 9.057 9.096 9.017 8.773 9.288 8.973 9.524 9.434 9.431 9.476 9.343 8.782 8.922 8.959 8.973 9.027 9.027 9.33 8.955 9.127 9.156 9.018 9.15 9.177 9.134 9.166 9.224 9.224 9.285 10.499 11.416 10.823 10.234 9.69 9.759 9.761 9.796 10.371 10.065 9.925 -9999 -9999 -9999 -9999 -9999 -9999 -9999 -9999 -9999 -9999 -9999 -9999 -9999 -9999 -9999 -9999 -9999 -9999 -9999 -9999 -9999 -9999 -9999 -9999 -9999 -9999 -9999 -9999 -9999 -9999 -9999 -9999 -9999 -9999 -9999 -9999 -9999 -9999 -9999 -9999 -9999 -9999 -9999 -9999 -9999 -9999 -9999 -9999
-9999 -9999 -9999 -9999 -9999 -9999 -9999 -9999 -9999 -9999 -9999 -9999 -9999 -9999 -9999 -9999 -9999 -9999 -9999 -9999 -9999 -9999 -9999 -9999 -9999 -9999 -9999 -9999 -9999 11.223 15.547 12.764 12.764 12.764 12.764 12.764 12.764 12.764 12.764 13.683 12.764 12.764 12.764 12.764 12.764 12.764 12.764 12.764 12.764 12.764 12.764 12.764 12.764 12.764 12.764 14.427 9.58 7.748 7.776 7.693 7.693 7.693 7.671 7.671 7.671 7.671 7.671 7.671 7.671 7.722 7.746 7.671 7.671 8.06 8.034 7.832 7.907 7.525 7.525 7.525 7.525 7.525 7.526 8.096 7.311 7.602 7.289 7.263 7.126 7.078 6.983 6.975 7.075 6.512 5.719 5.419 6.862 6.934 6.899 7.184 7.231 7.292 7.555 7.555 7.555 7.596 7.596 7.596 7.689 7.695 7.695 7.956 8.046 7.902 7.929 7.929 7.929 7.929 7.929 7.995 7.953 7.953 7.953 7.953 7.953 8.048 8.022 8.172 8.097 8.212 8.34 8.286 8.425 8.445 8.388 8.597 8.593 8.593 8.782 8.851 8.81 8.592 8.592 8.624 8.406 8.328 8.468 8.564 9.063 9.601 9.512 9.403 9.414 9.42 9.066 9.279 9.2 8.605 8.636 8.65 8.675 8.683 8.6 8.931 8.996 8.786 8.64 8.659 8.662 8.17 8.505 7.507 8.356 9.683 10.054 10.194 8.958 8.773 8.773 8.773 8.773 8.83 8.773 9.072 9.009 8.773 8.773 8.773 9.061 8.974 8.773 9.41 8.773 8.773 8.773 8.773 9.276 8.973 8.973 8.973 8.973 9.518 9.476 9.104 9.197 9.085 9.112 9.152 9.124 9.369 8.955 9.19 9.045 9.018 9.148 9.134 9.258 9.253 10.22 9.379 9.412 10.549 11.47 10.763 9.709 9.69 9.69 9.69 9.69 9.69 9.831 10.093 9.993 10.08 -9999 -9999 -9999 -9999 -9999 -9999 -9999 -9999 -9999 -9999 -9999 -9999 -9999 -9999 -9999 -9999 -9999 -9999 -9999 -9999 -9999 -9999 -9999 -9999 -9999 -9999 -9999 -9999 -9999 -9999 -9999 -9999 -9999 -9999 -9999 -9999 -9999 -9999 -9999 -9999 -9999 -9999 -9999 -9999 -9999 -9999
-9999 -9999 -9999 -9999 -9999 -9999 -9999 -9999 -9999 -9999 -9999 -9999 -9999 -9999 -9999 -9999 -9999 -9999 -9999 -9999 -9999 -9999 -9999 -9999 -9999 -9999 -9999 -9999 -9999 -9999 13.833 13.366 12.764 12.764 12.764 12.764 12.764 12.764 12.764 12.764 14.036 12.764 12.764 12.764 12.764 12.764 12.764 12.764 12.764 12.764 12.764 12.764 12.764 12.764 12.764 14.511 9.465 7.792 8.063 8.099 7.791 7.796 7.858 7.875 7.863 7.671 7.671 7.671 7.671 7.807 7.671 7.731 7.944 8.025 7.94 7.832 7.944 7.878 7.715 7.525 7.549 7.686 7.587 7.864 7.311 7.505 7.504 7.386 7.323 7.326 7.364 7.184 6.512 7.155 6.25 5.457 7.001 7.158 7.624 7.436 7.636 7.758 7.824 7.815 7.774 7.941 7.952 7.831 8.011 7.913 7.941 8.373 9.077 8.951 8.563 8.973 8.321 7.929 8.123 8.32 8.228 8.207 8.165 8.107 7.953 8.06 8.164 8.093 8.123 8.233 8.286 8.38 8.361 8.54 8.388 8.625 8.674 8.593 8.745 8.78 8.8 8.592 8.621 8.608 8.441 8.485 8.44 8.501 8.998 9.072 9.142 9.11 9.451 9.461 9.073 9.457 9.458 8.62 8.66 8.62 8.653 8.724 8.672 8.653 8.654 8.724 8.712 8.607 8.593 8.17 8.521 8.728 7.938 9.405 9.689 10.126 10.26 8.773 8.773 8.776 8.773 8.815 8.773 9.034 8.891 8.773 8.773 8.773 9.014 9.002 8.773 9.31 9.2 9.041 9.302 9.184 9.151 8.973 9.36 9.472 9.507 8.973 8.973 9.042 9.166 9.26 9.182 9.207 9.216 9.369 8.955 9.208 9.225 9.018 9.133 9.84 9.134 9.203 9.297 9.297 9.368 10.554 11.529 10.705 9.69 9.69 9.724 9.69 9.797 9.824 9.762 9.967 10.034 9.921 9.91 -9999 -9999 -9999 -9999 -9999 -9999 -9999 -9999 -9999 -9999 -9999 -9999 -9999 -9999 -9999 -9999 -9999 -9999 -9999 -9999 -9999 -9999 -9999 -9999 -9999 -9999 -9999 -9999 -9999 -9999 -9999 -9999 -9999 -9999 -9999 -9999 -9999 -9999 -9999 -9999 -9999 -9999 -9999 -9999 -9999
-9999 -9999 -9999 -9999 -9999 -9999 -9999 -9999 -9999 -9999 -9999 -9999 -9999 -9999 -9999 -9999 -9999 -9999 -9999 -9999 -9999 -9999 -9999 -9999 -9999 -9999 -9999 -9999 -9999 -9999 10.511 15.989 12.955 12.764 12.764 12.764 12.764 12.764 12.764 12.764 12.764 13.346 12.764 12.764 12.764 12.764 12.764 12.764 12.764 12.764 12.764 12.764 12.764 12.764 12.764 14.33 9.33 7.74 7.791 7.828 7.833 7.809 7.75 7.75 7.817 7.744 7.799 7.671 7.82 7.786 7.671 7.979 8.077 8.17 8.128 7.898 7.887 7.961 7.98 7.525 7.598 7.561 7.785 7.788 7.529 7.61 7.145 7.091 7.091 6.961 6.893 6.88 7.138 6.968 6.032 6.351 7.035 7.248 7.607 7.533 7.691 7.652 7.587 7.693 7.63 7.78 7.826 7.786 7.838 7.949 7.998 8.936 9.16 9.176 9.195 9.17 9.257 7.929 8.138 8.091 8.091 8.091 8.155 8.006 7.953 8.106 8.202 8.093 8.164 8.439 8.48 8.299 8.495 8.718 8.388 8.739 8.724 8.593 8.667 8.647 8.682 8.627 8.982 9.191 8.44 8.44 8.488 8.689 8.655 8.735 8.843 9.002 9.448 9.411 8.62 8.62 8.62 8.62 8.62 8.62 8.62 8.62 8.68 8.653 8.858 8.905 8.987 8.882 8.748 8.228 8.292 8.813 7.938 9.215 9.595 9.955 10.262 8.834 8.773 8.945 8.773 8.785 8.773 9.031 8.926 8.773 8.773 8.773 8.998 8.993 8.773 9.336 9.251 9.197 9.264 9.159 9.173 8.973 9.41 9.412 9.283 8.973 9.457 9 9.351 9.38 9.437 9.407 9.339 9.363 9.034 9.452 9.3 9.018 9.245 9.414 9.175 9.289 9.334 9.317 9.329 10.523 11.441 10.697 9.69 9.69 9.695 9.735 9.796 9.792 9.735 9.885 9.735 10.04 10.027 10.066 9.925 -9999 -9999 -9999 -9999 -9999 -9999 -9999 -9999 -9999 -9999 -9999 -9999 -9999 -9999 -9999 -9999 -9999 -9999 -9999 -9999 -9999 -9999 -9999 -9999 -9999 -9999 -9999 -9999 -9999 -9999 -9999 -9999 -9999 -9999 -9999 -9999 -9999 -9999 -9999 -9999 -9999 -9999 -9999
-9999 -9999 -9999 -9999 -9999 -9999 -9999 -9999 -9999 -9999 -9999 -9999 -9999 -9999 -9999 -9999 -9999 -9999 -9999 -9999 -9999 -9999 -9999 -9999 -9999 -9999 -9999 -9999 -9999 -9999 -9999 13.579 13.672 12.764 12.764 12.764 12.764 12.764 12.764 12.764 12.764 12.764 12.764 12.764 12.764 12.764 12.764 12.764 12.764 12.764 12.764 12.764 12.764 12.764 12.764 14.37 9.329 7.74 7.803 7.793 7.812 7.959 7.859 7.75 7.783 7.742 7.761 7.671 7.796 7.759 7.671 8.03 7.979 8.056 8.203 7.934 8.009 7.838 8.048 7.85 7.525 7.525 7.687 7.711 7.529 7.647 7.545 7.485 7.33 7.288 7.426 6.903 7.255 6.955 6.032 6.334 7.182 7.267 7.286 7.348 7.37 7.305 7.225 7.296 7.428 7.474 7.514 7.53 7.605 7.721 7.721 8.939 9.225 9.217 9.248 9.24 8.319 7.929 8.223 8.209 8.091 8.091 8.091 8.024 7.953 8.083 8.128 8.155 8.281 8.323 8.509 8.342 8.522 8.428 8.388 8.626 8.593 8.63 8.685 8.764 8.647 8.635 8.736 9.197 8.484 8.832 8.638 9.285 9.343 8.908 8.932 8.936 9.45 9.385 9.405 8.62 8.62 8.976 8.915 8.861 8.62 8.715 8.687 8.792 8.743 8.717 8.953 8.975 8.773 8.31 8.663 8.821 7.938 8.749 9.504 9.949 10.145 8.966 8.773 8.928 8.773 8.97 8.773 9.048 9.023 8.905 8.773 8.773 9.022 9.06 8.773 9.446 8.911 8.942 8.976 9.018 9.079 8.973 9.028 9.037 8.973 8.973 8.973 9.003 9.436 9.408 9.401 9.492 9.545 9.288 9.034 9.509 9.421 9.071 9.411 9.467 9.477 9.482 9.431 9.384 9.365 10.522 11.287 10.656 9.704 9.762 9.732 9.763 9.735 9.735 9.735 9.735 9.735 9.924 10.023 10.036 10.04 9.949 -9999 -9999 -9999 -9999 -9999 -9999 -9999 -9999 -9999 -9999 -9999 -9999 -9999 -9999 -9999 -9999 -9999 -9999 -9999 -9999 -9999 -9999 -9999 -9999 -9999 -9999 -9999 -9999 -9999 -9999 -9999 -9999 -9999 -9999 -9999 -9999 -9999 -9999 -9999 -9999 -9999 -9999
-9999 -9999 -9999 -9999 -9999 -9999 -9999 -9999 -9999 -9999 -9999 -9999 -9999 -9999 -9999 -9999 -9999 -9999 -9999 -9999 -9999 -9999 -9999 -9999 -9999 -9999 -9999 -9999 -9999 -9999 -9999 -9999 15.421 13.02 12.764 12.764 12.764 12.764 12.764 12.764 12.764 12.764 12.764 12.764 12.764 12.764 12.764 13.143 12.764 12.764 12.764 12.764 12.764 12.764 12.764 14.296 9.214 7.74 7.912 7.898 7.922 7.962 7.75 7.814 7.759 7.68 7.948 7.671 7.868 7.753 7.671 8.094 8.097 8.139 8.02 7.896 7.925 7.806 7.525 7.525 7.936 7.837 7.794 7.742 7.537 7.671 7.518 7.428 7.34 7.327 7.422 6.878 7.313 6.84 6.032 6.032 6.967 7.042 7.107 7.332 7.319 7.066 7.042 7.091 7.411 7.548 7.607 7.702 7.722 7.842 7.961 8.954 9.219 9.222 9.24 9.244 8.483 7.929 8.205 8.234 8.109 8.091 8.201 8.35 7.953 8.124 8.109 8.168 8.216 8.281 8.277 8.393 8.457 8.563 8.388 8.692 8.899 8.549 8.634 8.74 8.708 8.751 8.828 8.858 8.532 8.589 8.876 8.942 8.93 8.908 8.908 8.957 9.387 9.391 9.412 8.782 8.621 8.865 8.861 8.964 9.079 9.117 8.676 8.848 8.8 8.71 8.621 8.75 8.783 8.389 9.125 9.311 7.938 8.662 8.534 8.845 8.826 8.995 8.853 8.814 8.849 8.906 8.906 8.929 8.834 9.121 8.822 8.773 8.773 8.81 8.873 8.839 9.027 8.839 9.015 9.097 9.142 9.244 9.185 8.973 9.113 9.057 8.973 9.033 9.331 9.357 9.357 9.357 9.372 9.356 9.291 9.458 9.403 9.553 9.535 9.428 9.476 9.477 9.509 9.45 9.491 10.299 11.109 10.197 9.639 9.639 9.804 9.781 9.735 9.735 9.804 9.778 9.75 10.004 9.924 9.973 9.937 10.107 10.187 -9999 -9999 -9999 -9999 -9999 -9999 -9999 -9999 -9999 -9999 -9999 -9999 -9999 -9999 -9999 -9999 -9999 -9999 -9999 -9999 -9999 -9999 -9999 -9999 -9999 -9999 -9999 -9999 -9999 -9999 -9999 -9999 -9999 -9999 -9999 -9999 -9999 -9999 -9999 -9999 -9999
-9999 -9999 -9999 -9999 -9999 -9999 -9999 -9999 -9999 -9999 -9999 -9999 -9999 -9999 -9999 -9999 -9999 -9999 -9999 -9999 -9999 -9999 -9999 -9999 -9999 -9999 -9999 -9999 -9999 -9999 -9999 -9999 12.331 14.376 12.764 12.764 12.764 12.764 12.764 12.764 12.764 12.764 12.764 12.764 12.764 12.764 12.764 12.764 12.764 12.764 12.764 12.764 12.764 12.764 12.764 14.2 9.042 7.816 7.696 7.671 7.671 7.671 7.671 7.671 7.671 7.671 7.671 7.671 7.765 7.76 7.671 8.251 7.88 8.193 8.178 7.787 7.947 7.851 7.525 7.525 7.525 7.526 7.535 7.583 7.633 7.769 7.428 7.592 7.471 7.19 7.311 6.806 7.085 6.474 6.032 6.798 7.362 7.062 7.042 7.042 7.042 7.042 7.042 7.042 7.266 7.521 7.74 7.657 7.817 7.804 7.973 9.122 9.213 9.212 9.223 9.231 8.873 7.929 8.146 8.319 8.171 8.091 8.21 8.243 7.953 8.043 8.163 8.109 8.149 8.244 8.32 8.371 8.446 8.53 8.388 8.572 8.549 8.549 8.836 8.941 8.727 8.708 8.777 8.937 8.54 8.754 8.845 8.845 8.97 8.994 8.999 9.032 9.315 9.649 9.554 9.281 8.818 9.017 8.96 9.108 9.755 9.164 8.752 8.582 8.556 8.423 8.423 8.423 8.423 8.464 9.343 9.286 7.938 8.691 8.534 8.534 8.534 8.534 8.599 8.599 8.64 8.64 8.64 8.64 8.645 8.71 8.773 8.773 8.908 8.974 8.855 8.892 8.839 9.124 9.491 9.632 9.714 9.646 9.58 9.478 9.39 9.329 8.973 9.275 9.571 9.586 9.551 9.619 9.637 9.557 9.673 9.664 9.66 9.599 9.546 9.689 9.585 9.514 9.45 9.5 9.45 9.527 9.514 9.652 9.658 9.639 9.754 9.89 9.954 9.902 9.964 9.926 10.012 10.101 10.099 9.924 10.183 10.134 10.63 10.215 10.429 -9999 -9999 -9999 -9999 -9999 -9999 -9999 -9999 -9999 -9999 -9999 -9999 -9999 -9999 -9999 -9999 -9999 -9999 -9999 -9999 -9999 -9999 -9999 -9999 -9999 -9999 -9999 -9999 -9999 -9999 -9999 -9999 -9999 -9999 -9999 -9999 -9999 -9999 -9999
-9999 -9999 -9999 -9999 -9999 -9999 -9999 -9999 -9999 -9999 -9999 -9999 -9999 -9999 -9999 -9999 -9999 -9999 -9999 -9999 -9999 -9999 -9999 -9999 -9999 -9999 -9999 -9999 -9999 -9999 -9999 -9999 -9999 14.564 13.249 12.764 12.764 12.764 12.764 12.764 12.764 12.764 12.764 12.764 12.764 12.764 12.764 12.764 12.764 12.764 12.764 12.764 12.764 12.764 12.764 14.083 9.19 7.843 7.945 7.876 7.919 8.003 7.894 7.851 7.826 7.804 7.847 7.671 7.836 7.775 7.755 7.88 7.88 8.207 8.156 7.903 7.787 8.044 8.044 8.217 7.966 7.895 7.788 7.827 7.583 7.648 7.649 7.494 7.184 6.806 6.806 6.806 7.052 6.53 6.032 7.127 7.466 7.167 7.312 7.311 7.12 7.174 7.368 7.511 7.299 7.642 7.703 7.84 7.815 7.811 7.953 9.14 9.208 9.196 9.185 9.202 9.117 7.929 8.014 8.271 8.126 8.129 8.099 8.402 7.987 8.31 8.291 8.145 8.231 8.313 8.418 8.348 8.458 8.511 8.388 8.486 8.69 8.549 8.885 8.88 8.866 8.708 8.708 8.805 8.577 8.888 8.9 9.385 9.057 9.325 9.338 9.321 9.385 9.699 9.402 9.116 8.901 9.453 9.354 9.056 9.882 9.262 8.813 8.893 9.389 9.941 8.949 8.617 8.486 8.423 9.028 9.322 7.938 8.789 8.534 8.769 9.029 8.534 9.017 8.886 8.708 9.038 8.825 8.842 8.898 8.947 9.015 8.773 8.919 8.995 8.855 9.045 9.492 9.508 9.591 9.541 9.527 9.614 9.613 9.861 9.935 9.205 9.085 9.341 9.591 9.601 9.528 9.563 9.614 9.603 9.592 9.641 9.642 9.641 9.626 9.57 9.739 9.673 9.597 9.555 9.679 9.45 9.45 9.45 9.45 9.45 9.475 9.517 9.669 9.669 9.743 9.929 9.926 9.926 9.95 9.924 10.097 10.143 10.149 10.098 10.077 10.049 -9999 -9999 -9999 -9999 -9999 -9999 -9999 -9999 -9999 -9999 -9999 -9999 -9999 -9999 -9999 -9999 -9999 -9999 -9999 -9999 -9999 -9999 -9999 -9999 -9999 -9999 -9999 -9999 -9999 -9999 -9999 -9999 -9999 -9999 -9999 -9999 -9999 -9999
-9999 -9999 -9999 -9999 -9999 -9999 -9999 -9999 -9999 -9999 -9999 -9999 -9999 -9999 -9999 -9999 -9999 -9999 -9999 -9999 -9999 -9999 -9999 -9999 -9999 -9999 -9999 -9999 -9999 -9999 -9999 -9999 -9999 11.328 15.589 12.764 12.764 12.764 12.764 12.764 12.764 12.764 12.764 12.764 12.764 12.764 12.764 12.764 12.764 12.764 12.764 12.764 12.764 12.764 12.764 14.28 9.247 8 8.303 8.157 8.085 8.224 8.186 8.179 8.218 8.222 7.806 7.857 7.709 7.831 7.755 7.928 8.217 7.969 7.992 7.787 7.841 7.828 8.09 7.98 7.948 7.985 8.022 7.877 7.685 7.81 7.829 7.443 7.418 7.374 7.369 6.806 6.958 6.418 6.032 7.232 7.65 7.192 7.361 7.594 7.289 7.434 7.389 7.671 7.627 7.773 7.898 7.896 7.94 8.089 8.127 8.166 8.545 8.87 8.933 8.686 8.332 7.929 7.929 7.98 8.097 8.132 8.24 8.297 8.138 8.252 8.145 8.145 8.293 8.231 8.24 8.382 8.57 8.639 8.408 9.069 8.685 8.549 8.921 8.836 8.835 8.821 8.913 8.862 8.577 9.621 9.509 9.346 9.007 9.458 9.457 9.28 9.342 9.626 9.271 8.985 8.981 9.589 9.553 9.393 9.231 9.191 8.866 9.822 9.827 9.92 8.727 8.423 8.423 8.423 8.921 8.729 7.938 8.796 8.534 8.77 8.901 8.534 8.994 8.939 8.708 9.108 8.867 8.825 9.008 9.115 9.018 8.773 9.034 9.128 8.938 9.217 9.467 9.754 9.654 9.527 9.527 9.527 9.601 9.73 9.859 9.282 9.085 9.153 9.666 9.647 9.528 9.528 9.528 9.528 9.479 9.479 9.479 9.479 9.502 9.568 10.12 9.797 10.01 9.975 9.798 9.58 9.609 9.45 9.642 9.754 9.799 9.915 10.033 9.939 10.054 9.939 10.194 10.287 10.245 9.924 10.181 10.366 10.545 10.443 9.949 10.298 10.012 10.354 -9999 -9999 -9999 -9999 -9999 -9999 -9999 -9999 -9999 -9999 -9999 -9999 -9999 -9999 -9999 -9999 -9999 -9999 -9999 -9999 -9999 -9999 -9999 -9999 -9999 -9999 -9999 -9999 -9999 -9999 -9999 -9999 -9999 -9999 -9999 -9999
-9999 -9999 -9999 -9999 -9999 -9999 -9999 -9999 -9999 -9999 -9999 -9999 -9999 -9999 -9999 -9999 -9999 -9999 -9999 -9999 -9999 -9999 -9999 -9999 -9999 -9999 -9999 -9999 -9999 -9999 -9999 -9999 -9999 -9999 13.824 13.433 12.764 12.764 12.764 12.764 12.764 12.764 12.764 12.764 12.764 12.764 12.764 12.764 12.764 12.764 12.764 12.764 12.764 12.764 12.764 14.437 9.288 8.131 8.427 8.465 8.331 8.314 8.236 8.191 7.838 7.838 7.85 7.927 7.709 7.815 7.755 7.874 8.181 7.887 7.787 8.066 8.149 8.1 7.685 7.685 7.685 7.685 7.685 7.685 7.723 7.912 7.902 7.818 7.6 7.357 7.183 6.806 7.168 6.437 6.032 7.466 7.65 7.192 7.713 7.486 7.527 7.541 7.531 7.687 7.831 8.172 8.27 8.29 8.287 8.194 8.157 8.127 8.617 8.891 9.01 8.705 8.289 7.929 7.946 8.261 8.168 8.202 8.217 8.318 8.092 8.541 8.256 8.165 8.343 8.441 8.622 8.551 8.641 8.823 8.414 8.757 8.858 8.684 8.766 8.786 8.725 8.871 8.916 8.771 8.592 10.034 9.626 8.993 9.163 9.515 9.491 9.194 9.266 9.734 9.738 9.74 8.981 9.751 9.632 9.231 9.322 9.309 8.91 9.889 9.923 9.464 8.92 8.506 8.423 8.423 8.53 8.887 7.938 8.75 8.534 8.771 8.884 8.79 9.067 9.113 8.935 9.028 9.022 8.985 8.825 9.042 9.122 8.781 9.197 9.1 8.991 9.305 9.498 9.656 9.566 9.527 9.527 9.527 9.936 9.78 9.758 9.885 9.353 9.343 9.738 9.705 9.677 9.659 9.675 9.656 9.611 9.479 9.479 9.479 9.479 9.479 10.059 10.104 10.186 9.973 9.819 9.611 9.814 9.45 9.745 9.797 9.963 9.968 10.168 10.062 10.119 10.14 10.359 10.503 10.5 9.924 10.16 10.297 10.102 10.102 9.949 10.273 10.217 9.973 9.973 -9999 -9999 -9999 -9999 -9999 -9999 -9999 -9999 -9999 -9999 -9999 -9999 -9999 -9999 -9999 -9999 -9999 -9999 -9999 -9999 -9999 -9999 -9999 -9999 -9999 -9999 -9999 -9999 -9999 -9999 -9999 -9999 -9999 -9999 -9999
-9999 -9999 -9999 -9999 -9999 -9999 -9999 -9999 -9999 -9999 -9999 -9999 -9999 -9999 -9999 -9999 -9999 -9999 -9999 -9999 -9999 -9999 -9999 -9999 -9999 -9999 -9999 -9999 -9999 -9999 -9999 -9999 -9999 -9999 -9999 15.892 12.987 12.764 12.764 12.764 12.764 12.764 12.764 12.764 12.764 12.764 12.764 12.764 12.764 12.764 12.764 12.764 12.764 12.764 12.764 14.283 9.508 8.212 8.471 8.162 8.359 8.316 8.339 8.453 7.882 7.838 7.881 7.738 7.842 7.895 7.755 7.787 8.217 7.787 7.787 8.036 8.187 8.092 8.204 8.049 8.09 8.042 7.928 7.811 7.686 7.889 7.928 7.636 7.618 7.481 7.232 7.242 6.806 6.342 6.181 7.483 7.665 7.303 7.736 7.687 7.618 7.615 7.697 7.752 7.92 8.252 8.215 8.479 8.382 8.157 8.208 8.127 8.631 8.866 8.694 8.62 8.31 7.929 8.15 8.112 8.112 8.112 8.204 8.309 8.067 8.392 8.336 8.256 8.333 8.463 8.601 8.513 8.513 8.62 8.512 8.806 8.736 8.602 8.635 8.673 8.697 8.84 8.904 8.915 8.592 8.592 8.622 8.746 8.907 8.96 9.038 9.262 9.248 9.656 9.648 9.641 8.981 9.445 9.473 9.231 9.378 9.34 9.065 9.292 9.908 9.794 8.556 8.423 8.423 8.423 8.903 8.899 8.887 8.396 8.755 8.639 8.915 8.92 8.903 9.01 9.049 8.933 9.002 9.127 8.971 8.985 9.209 8.895 9.152 9.174 9.204 9.444 9.6 9.639 9.561 9.527 9.527 9.527 9.705 9.74 9.734 9.485 9.343 9.43 9.759 9.754 9.782 9.73 9.695 9.715 9.558 9.506 9.479 9.685 9.742 9.479 10.007 10.11 10.094 10.019 9.805 9.657 9.8 9.45 9.45 9.45 9.45 9.45 9.504 9.593 9.662 10.286 10.423 10.406 10.391 9.973 10.132 10.238 10.102 10.25 9.949 10.561 10.478 10.027 10.426 9.973 10.12 -9999 -9999 -9999 -9999 -9999 -9999 -9999 -9999 -9999 -9999 -9999 -9999 -9999 -9999 -9999 -9999 -9999 -9999 -9999 -9999 -9999 -9999 -9999 -9999 -9999 -9999 -9999 -9999 -9999 -9999 -9999 -9999 -9999
-9999 -9999 -9999 -9999 -9999 -9999 -9999 -9999 -9999 -9999 -9999 -9999 -9999 -9999 -9999 -9999 -9999 -9999 -9999 -9999 -9999 -9999 -9999 -9999 -9999 -9999 -9999 -9999 -9999 -9999 -9999 -9999 -9999 -9999 -9999 13.036 13.781 12.764 12.764 12.764 12.764 12.764 12.764 12.764 12.764 12.764 12.764 12.764 12.764 12.764 12.764 12.764 12.764 12.764 12.764 14.319 9.572 8.121 8.046 8.046 8.046 8.103 8.233 8.261 7.908 7.838 7.973 7.832 7.862 7.9 7.755 7.793 7.787 8.192 8.124 7.958 7.992 8.071 8.049 8.137 8.058 8.166 7.956 7.908 7.88 8.001 7.63 7.63 7.479 7.191 7.449 7.364 7.367 6.181 7.561 7.74 7.713 7.397 7.753 7.88 7.65 7.791 7.696 7.843 7.916 8.169 8.22 8.37 8.369 8.292 8.206 8.268 8.792 8.727 8.471 8.449 8.309 7.929 8.207 8.175 8.112 8.287 8.362 8.348 8.067 8.584 8.303 8.329 8.422 8.382 8.513 8.617 8.623 8.765 8.58 8.7 8.602 8.602 8.638 8.738 8.703 8.862 8.796 8.796 8.691 8.592 9.1 9.45 9.65 9.423 9.152 9.18 9.223 9.748 9.76 9.748 8.981 9.431 9.448 9.231 9.491 9.46 9.102 9.185 8.979 8.872 8.757 8.468 8.748 8.423 8.719 8.704 9.107 8.396 8.86 8.639 8.851 9 8.776 8.888 8.916 8.916 9.025 9.117 8.971 9.11 9.225 8.98 9.195 9.332 9.184 9.529 9.539 9.635 9.527 9.527 10.048 9.996 9.778 9.82 9.792 9.431 9.365 9.406 9.487 9.564 9.544 9.407 9.394 9.328 9.328 9.345 9.381 9.538 9.611 9.479 10.014 10.12 10.095 10.022 9.834 9.81 9.842 9.45 9.972 9.98 10.085 10.102 10.22 10.2 10.063 10.119 10.191 10.274 10.294 9.868 10.227 10.228 10.124 10.309 9.949 10.19 10.301 10.159 10.348 10.24 9.973 10.325 -9999 -9999 -9999 -9999 -9999 -9999 -9999 -9999 -9999 -9999 -9999 -9999 -9999 -9999 -9999 -9999 -9999 -9999 -9999 -9999 -9999 -9999 -9999 -9999 -9999 -9999 -9999 -9999 -9999 -9999 -9999 -9999
-9999 -9999 -9999 -9999 -9999 -9999 -9999 -9999 -9999 -9999 -9999 -9999 -9999 -9999 -9999 -9999 -9999 -9999 -9999 -9999 -9999 -9999 -9999 -9999 -9999 -9999 -9999 -9999 -9999 -9999 -9999 -9999 -9999 -9999 -9999 -9999 14.937 13.317 13.26 13.181 13.243 13.24 13.238 13.193 13.233 13.234 13.182 13.107 13.293 13.238 13.208 13.105 13.16 13.166 13.012 13.973 9.762 8.046 8.278 8.21 8.101 8.112 8.192 8.172 7.937 7.838 7.883 7.944 8.065 7.935 7.912 7.809 8.223 8.184 8.149 8.164 8.158 8.058 8.105 8.196 8.09 7.913 7.933 7.691 7.627 8.097 7.809 7.812 7.747 7.191 7.389 6.971 6.181 6.406 7.755 7.698 7.949 7.583 7.794 7.744 7.824 7.85 7.749 7.922 8.013 8.308 8.169 8.169 8.32 8.19 8.144 8.646 8.668 8.431 8.288 8.253 8.541 8.003 8.267 8.275 8.174 8.112 8.313 8.366 8.067 8.374 8.338 8.296 8.653 8.866 8.71 8.659 8.71 8.857 8.581 8.864 8.954 8.602 8.659 8.638 8.94 9.076 9.232 9.266 8.592 8.592 9.145 9.505 9.855 9.387 9.144 9.206 9.15 9.526 9.596 9.563 9.039 9.25 9.248 9.61 9.567 9.192 9.113 9.003 9.077 9.141 9.163 9.008 8.979 8.468 8.707 8.614 8.862 8.396 8.884 8.776 8.812 9.022 8.776 8.948 9.063 8.916 9.117 9.159 8.971 9.27 9.276 9.08 9.4 9.357 9.387 9.579 9.597 9.656 9.527 9.537 10.006 9.937 9.476 9.353 9.329 9.599 9.335 9.328 9.69 9.431 9.469 9.338 9.328 9.328 9.328 9.364 9.366 9.525 9.573 9.485 9.961 9.989 10.063 10.003 9.801 9.807 10.018 9.636 9.88 10.06 10.171 10.629 10.375 10.579 10.37 10.194 9.993 10.254 10.331 9.814 10.277 10.32 10.074 10.209 9.949 10.256 10.168 10.063 10.166 10.104 9.997 10.162 10.162 10.456 -9999 -9999 -9999 -9999 -9999 -9999 -9999 -9999 -9999 -9999 -9999 -9999 -9999 -9999 -9999 -9999 -9999 -9999 -9999 -9999 -9999 -9999 -9999 -9999 -9999 -9999 -9999 -9999 -9999 -9999
-9999 -9999 -9999 -9999 -9999 -9999 -9999 -9999 -9999 -9999 -9999 -9999 -9999 -9999 -9999 -9999 -9999 -9999 -9999 -9999 -9999 -9999 -9999 -9999 -9999 -9999 -9999 -9999 -9999 -9999 -9999 -9999 -9999 -9999 -9999 -9999 11.178 13.852 14.057 13.891 13.97 14.031 14.04 14.059 14.157 14.126 14.426 14.57 14.483 14.492 14.411 14.478 14.36 14.336 14.239 13.921 9.953 8.046 8.201 7.998 8.072 8.084 8.08 8.054 8.106 7.838 7.961 7.883 7.859 8.126 7.809 8.053 8.076 8.336 8.237 8.22 8.175 7.92 8.149 8.078 7.958 7.762 7.81 7.652 7.573 7.693 7.864 7.716 7.772 7.021 7.354 6.181 7.63 7.605 7.809 7.839 7.966 7.776 7.999 7.933 8.126 8.127 7.98 8.325 8.042 8.262 8.267 8.178 8.264 8.275 8.067 8.27 8.557 8.271 8.192 8.154 8.519 8.135 8.232 8.411 8.233 8.406 8.563 8.328 8.067 8.302 8.296 8.306 8.901 8.653 8.653 8.784 9.024 8.918 8.603 8.937 8.756 8.602 8.779 8.824 8.638 9.023 8.969 8.992 8.592 8.672 8.638 9.625 9.661 9.169 9.124 9.15 9.297 9.284 9.451 9.399 9.099 9.303 9.248 9.357 9.585 9.328 9.148 9.308 9.355 9.085 8.705 8.705 8.705 8.685 8.476 8.531 8.692 8.781 8.792 8.776 8.776 8.776 8.849 8.92 8.953 9.03 9.08 9.132 9.205 9.255 9.327 9.386 9.416 9.383 9.357 9.357 9.37 9.527 9.61 9.531 9.571 9.507 9.484 9.503 9.328 9.328 9.328 9.328 9.328 9.328 9.328 9.328 9.328 9.328 9.328 9.328 9.339 9.339 9.339 9.339 9.354 9.424 9.508 9.512 9.575 9.604 9.751 9.636 9.795 9.795 9.836 10.383 10.03 9.993 10.084 9.993 9.993 9.993 9.814 9.814 9.979 9.949 9.949 9.949 9.949 9.949 10.016 9.949 9.949 9.949 10.309 10.357 10.162 10.233 10.18 -9999 -9999 -9999 -9999 -9999 -9999 -9999 -9999 -9999 -9999 -9999 -9999 -9999 -9999 -9999 -9999 -9999 -9999 -9999 -9999 -9999 -9999 -9999 -9999 -9999 -9999 -9999 -9999 -9999
-9999 -9999 -9999 -9999 -9999 -9999 -9999 -9999 -9999 -9999 -9999 -9999 -9999 -9999 -9999 -9999 -9999 -9999 -9999 -9999 -9999 -9999 -9999 -9999 -9999 -9999 -9999 -9999 -9999 -9999 -9999 -9999 -9999 -9999 -9999 -9999 -9999 8.328 8.41 8.3 8.3 8.284 8.267 8.267 8.267 8.267 8.267 8.267 8.267 8.267 8.207 8.194 8.24 8.22 8.046 8.046 8.046 8.046 8.046 7.997 8.11 8.046 7.98 8.109 8.284 7.838 7.896 8 7.958 7.859 7.809 7.925 8.084 8.272 8.208 8.195 8.243 7.92 7.92 7.947 7.948 7.782 7.608 7.573 7.573 7.573 7.573 7.573 7.53 7.287 6.865 6.628 7.395 7.549 7.652 7.745 7.878 7.877 8.059 7.946 8.024 7.98 8.038 8.17 8.203 8.409 8.384 8.354 8.311 8.067 8.207 8.067 8.394 8.067 8.067 8.067 8.369 8.203 8.437 8.337 8.143 8.401 8.279 8.313 8.067 8.394 8.439 8.296 8.706 8.77 8.757 8.803 8.779 9.048 8.602 8.678 8.842 8.602 8.778 8.937 8.938 8.815 9.026 9.115 8.602 8.694 8.602 9.632 9.654 9.102 9.07 9.166 8.939 9.012 9.144 9.156 9.114 9.356 9.344 9.368 9.505 9.303 9.242 9.624 9.506 9.002 8.81 9.357 9.183 8.657 9.087 9.07 9.176 9.086 8.776 8.776 9.08 8.966 9.072 9.153 9.234 9.16 9.182 9.173 9.356 9.254 9.557 9.539 9.686 9.709 9.64 9.69 9.701 9.556 9.734 9.328 9.796 9.663 9.566 9.675 9.328 9.789 9.545 9.517 9.521 9.535 9.79 9.768 9.445 9.505 9.605 9.328 9.619 9.442 9.425 9.72 9.592 9.811 9.907 9.328 9.84 9.806 9.787 9.636 10.138 9.829 10.11 10.067 10.138 10.05 9.993 10.148 9.993 10.019 9.855 9.814 9.942 10.002 10.02 10.099 9.949 9.949 9.949 10.116 10.153 10.218 10.382 10.535 10.369 10.222 10.014 10.014 -9999 -9999 -9999 -9999 -9999 -9999 -9999 -9999 -9999 -9999 -9999 -9999 -9999 -9999 -9999 -9999 -9999 -9999 -9999 -9999 -9999 -9999 -9999 -9999 -9999 -9999 -9999 -9999
-9999 -9999 -9999 -9999 -9999 -9999 -9999 -9999 -9999 -9999 -9999 -9999 -9999 -9999 -9999 -9999 -9999 -9999 -9999 -9999 -9999 -9999 -9999 -9999 -9999 -9999 -9999 -9999 -9999 -9999 -9999 -9999 -9999 -9999 -9999 -9999 -9999 -9999 8.829 8.3 8.513 8.569 8.267 8.425 8.517 8.267 8.473 8.28 8.267 8.378 8.254 8.18 8.18 8.046 8.115 8.146 8.046 8.046 8.071 7.997 7.997 7.98 7.98 7.98 7.862 8.067 7.998 8.184 8.018 7.809 7.902 7.809 8.086 8.037 8.009 8.009 7.92 7.92 7.92 7.92 7.92 7.771 7.756 7.573 7.635 7.771 7.591 7.685 7.545 7.495 6.628 6.751 7.819 7.356 7.936 7.988 7.984 8.021 7.814 7.96 8.081 7.98 8.257 8.211 8.252 8.067 8.067 8.067 8.067 8.067 8.067 8.067 8.067 8.067 8.067 8.067 8.067 8.067 8.154 8.067 8.067 8.067 8.067 8.067 8.067 8.091 8.201 8.278 8.378 8.48 8.625 8.646 8.717 8.721 8.638 8.602 8.602 8.602 8.602 8.602 8.602 8.602 8.602 8.602 8.602 8.602 8.625 8.602 8.611 8.69 8.758 8.838 8.838 8.838 8.838 8.838 9.059 8.918 8.944 9.138 9.177 9.133 9.133 9.133 9.194 9.472 9.285 9.286 8.905 8.657 9.033 9.259 9.292 9.241 8.776 8.776 8.776 9.063 9.186 9.318 9.175 9.26 9.172 9.327 9.273 9.267 9.631 9.649 9.627 9.944 9.723 9.775 9.437 9.572 9.662 9.328 9.539 9.593 9.635 9.607 9.328 9.81 9.675 9.539 9.894 9.844 9.593 9.755 9.328 9.578 9.737 9.328 9.667 9.625 9.425 9.712 9.639 9.725 10 9.328 9.893 9.76 9.82 9.798 10.014 9.829 10.077 10.199 10.114 10.087 10.18 10.13 10.022 10.254 10.326 9.814 10.189 10.055 10.439 9.988 9.949 9.952 10.085 10.167 10.348 10.341 10.471 10.318 10.596 10.333 10.298 10.387 9.919 10.218 -9999 -9999 -9999 -9999 -9999 -9999 -9999 -9999 -9999 -9999 -9999 -9999 -9999 -9999 -9999 -9999 -9999 -9999 -9999 -9999 -9999 -9999 -9999 -9999 -9999 -9999
-9999 -9999 -9999 -9999 -9999 -9999 -9999 -9999 -9999 -9999 -9999 -9999 -9999 -9999 -9999 -9999 -9999 -9999 -9999 -9999 -9999 -9999 -9999 -9999 -9999 -9999 -9999 -9999 -9999 -9999 -9999 -9999 -9999 -9999 -9999 -9999 -9999 -9999 8.607 8.3 8.554 8.559 8.267 8.668 8.599 8.267 8.639 8.347 8.356 8.48 8.243 8.304 8.367 8.046 8.3 8.293 8.063 8.069 8.246 8.09 8.028 8.194 8.042 8.013 7.951 8.118 8.138 7.944 7.809 8.021 7.809 8.058 8.25 8.238 8.265 8.599 8.332 8.2 8.072 8.253 8.109 8.05 8.385 8.071 7.888 8.121 7.562 7.6 7.018 6.758 6.628 6.821 7.779 7.356 7.913 8.193 8.207 8.123 7.814 8.138 8.249 8.086 8.397 8.615 8.407 8.338 8.316 8.321 8.326 8.378 8.45 8.067 8.067 8.279 8.331 8.313 8.313 8.197 8.067 8.77 8.63 8.294 8.302 8.375 8.481 8.501 8.609 8.496 8.576 8.763 8.783 8.923 8.943 8.945 8.879 8.818 8.915 8.759 9.012 8.968 8.833 8.89 8.623 8.754 8.948 8.602 8.602 8.81 8.974 9.146 9.1 9.262 9.16 9.185 8.838 9.106 8.838 8.973 8.948 9.156 9.133 9.133 9.538 9.188 9.472 9.541 9.499 9.394 9.253 8.662 9.02 9.245 9.205 9.306 8.779 8.776 8.776 8.833 9.157 9.031 9.038 9.081 9.112 9.175 9.307 9.352 9.349 9.42 9.572 9.436 9.326 9.68 9.356 9.425 9.566 9.328 9.452 9.51 9.51 9.642 9.328 9.779 9.651 9.351 9.733 9.58 9.539 9.653 9.328 9.615 9.618 9.328 9.716 9.619 9.425 9.764 9.605 9.71 9.914 9.328 9.952 9.76 9.796 9.797 10.11 9.866 10.114 10.213 10.19 10.19 10.111 10.129 10.092 10.39 10.514 9.814 10.236 10.095 10.026 10.027 9.949 10.032 10.221 10.166 10.329 10.359 10.319 10.58 10.318 10.228 10.311 10.214 10.451 9.834 9.905 -9999 -9999 -9999 -9999 -9999 -9999 -9999 -9999 -9999 -9999 -9999 -9999 -9999 -9999 -9999 -9999 -9999 -9999 -9999 -9999 -9999 -9999 -9999 -9999 -9999
-9999 -9999 -9999 -9999 -9999 -9999 -9999 -9999 -9999 -9999 -9999 -9999 -9999 -9999 -9999 -9999 -9999 -9999 -9999 -9999 -9999 -9999 -9999 -9999 -9999 -9999 -9999 -9999 -9999 -9999 -9999 -9999 -9999 -9999 -9999 -9999 -9999 -9999 -9999 8.3 8.713 8.579 8.267 8.616 8.554 8.398 8.668 8.37 8.421 8.56 8.298 8.457 8.431 8.082 8.326 8.294 8.063 8.193 8.254 8.068 8.159 8.214 7.951 7.951 7.956 7.944 7.944 7.966 7.809 7.95 7.856 8.055 8.225 8.326 8.323 8.622 8.623 8.649 8.169 8.113 8.004 7.979 7.922 7.888 7.888 7.956 7.562 7.562 7.196 7.351 6.791 6.628 7.841 7.356 7.704 7.934 8.029 8.094 7.809 8.059 8.282 8.067 8.067 8.311 8.297 8.216 8.531 8.195 8.113 8.403 8.466 8.067 8.067 8.126 8.245 8.067 8.148 8.234 8.276 8.728 8.631 8.499 8.495 8.491 8.563 8.481 8.481 8.481 8.71 8.702 8.702 8.88 8.943 8.864 8.864 8.966 9.025 8.768 9.263 8.833 9.093 9.024 8.799 9.009 9.074 8.602 8.602 8.871 9.257 9.56 9.5 9.573 9.356 9.366 8.92 9.454 8.838 9.59 9.289 8.971 9.774 9.431 9.738 9.475 9.564 9.629 9.655 9.69 9.453 8.813 9.007 8.776 8.776 8.776 8.776 8.776 8.776 8.776 8.926 8.996 8.996 9.1 9.137 9.229 9.207 9.219 9.221 9.176 9.284 9.294 9.367 9.284 9.284 9.404 9.513 9.328 9.517 9.54 9.51 9.547 9.328 9.692 9.591 9.351 9.593 9.498 9.592 9.606 9.328 9.531 9.821 9.328 9.92 9.709 9.522 9.722 9.605 9.67 9.933 9.328 9.911 9.76 9.76 9.76 10.061 9.76 10.053 10.058 10.184 10.085 10.085 10.085 10.085 10.496 10.323 9.814 10.265 10.074 10.026 10.107 9.949 10.184 10.072 10.121 10.19 10.285 10.346 10.426 10.292 10.211 10.194 10.165 10.303 10.378 9.834 9.595 10.184 -9999 -9999 -9999 -9999 -9999 -9999 -9999 -9999 -9999 -9999 -9999 -9999 -9999 -9999 -9999 -9999 -9999 -9999 -9999 -9999 -9999 -9999 -9999
-9999 -9999 -9999 -9999 -9999 -9999 -9999 -9999 -9999 -9999 -9999 -9999 -9999 -9999 -9999 -9999 -9999 -9999 -9999 -9999 -9999 -9999 -9999 -9999 -9999 -9999 -9999 -9999 -9999 -9999 -9999 -9999 -9999 -9999 -9999 -9999 -9999 -9999 -9999 -9999 8.594 8.845 8.267 8.576 8.587 8.398 8.695 8.37 8.419 8.561 8.298 8.298 8.313 8.082 8.399 8.277 8.063 8.165 8.262 8.005 8.005 8.17 7.951 8.014 7.955 7.976 7.944 7.967 7.815 7.809 7.809 8.12 8.267 8.262 8.28 8.46 8.336 8.27 8.206 8.251 8.13 8.098 7.911 7.888 7.888 8.022 7.677 7.643 7.261 7.257 6.913 6.628 7.132 7.222 7.45 7.45 8.194 8.368 7.809 7.89 8.067 8.392 8.26 8.067 8.067 8.067 8.067 8.067 8.067 8.067 8.067 8.067 8.067 8.067 8.067 8.067 8.067 8.199 8.17 8.246 8.448 8.47 8.497 8.491 8.528 8.481 8.54 8.481 8.815 8.778 8.702 8.969 9.005 8.864 8.953 9.144 9.245 9.026 8.931 8.833 9.02 8.799 8.799 8.799 8.96 8.817 8.602 9.121 9.532 9.825 9.814 9.81 9.76 9.219 8.92 9.023 8.941 9.394 9.418 9.067 9.474 9.431 9.526 9.475 9.66 9.776 9.814 9.532 9.315 8.92 9.532 9.168 8.993 8.946 8.776 8.776 8.867 8.897 9.191 9.101 9.096 8.996 9.519 9.51 9.533 9.32 9.138 9.465 9.17 9.296 9.266 9.328 9.337 9.402 9.442 9.328 9.493 9.442 9.457 9.579 9.328 9.582 9.465 9.328 9.632 9.469 9.518 9.669 9.328 9.712 9.695 9.328 9.796 9.722 9.434 9.86 9.52 9.52 9.864 9.328 9.782 9.76 9.76 9.76 9.968 9.76 10.049 10.208 10.085 10.235 10.194 10.279 10.321 10.393 10.456 9.814 10.052 10.11 10.132 10.088 9.949 10.233 10.099 10.073 10.073 10.073 10.169 10.198 10.129 10.208 10.139 10.168 10.216 10.214 10.404 9.998 9.702 9.982 -9999 -9999 -9999 -9999 -9999 -9999 -9999 -9999 -9999 -9999 -9999 -9999 -9999 -9999 -9999 -9999 -9999 -9999 -9999 -9999 -9999 -9999
-9999 -9999 -9999 -9999 -9999 -9999 -9999 -9999 -9999 -9999 -9999 -9999 -9999 -9999 -9999 -9999 -9999 -9999 -9999 -9999 -9999 -9999 -9999 -9999 -9999 -9999 -9999 -9999 -9999 -9999 -9999 -9999 -9999 -9999 -9999 -9999 -9999 -9999 -9999 -9999 8.638 8.629 8.298 8.637 8.572 8.398 8.548 8.436 8.484 8.448 8.298 8.419 8.318 8.097 8.287 8.353 8.136 8.213 8.264 8.005 8.084 8.087 7.951 7.977 7.944 7.944 7.944 7.979 7.877 7.873 7.809 7.882 8.386 8.303 8.34 8.518 8.519 8.6 8.22 8.276 8.116 8.112 7.923 8.124 7.984 7.902 7.662 7.261 7.392 7.215 7.131 6.628 7.696 7.494 7.666 7.45 7.45 8.39 8.174 7.809 8.231 8.241 8.342 8.232 8.133 8.163 8.272 8.248 8.239 8.247 8.07 8.126 8.282 8.067 8.302 8.201 8.27 8.17 8.181 8.527 8.495 8.764 8.992 9.417 9.07 8.737 8.757 8.588 8.89 9.061 8.906 8.797 9.06 9.139 9.014 9.414 9.456 9.466 9.083 9.147 9.239 9.104 8.799 9.046 9.306 9.084 8.607 9.223 9.904 10.05 9.956 10.028 10.1 10.11 9.207 9.436 9.011 9.228 9.383 9.317 9.841 9.906 9.893 9.902 10.033 10.053 10.04 9.639 9.362 8.977 9.36 9.265 9.009 9.01 8.82 8.776 8.776 8.865 9.055 9.166 9.167 9.341 9.367 9.595 9.504 9.239 9.207 9.133 9.133 9.161 9.161 9.387 9.328 9.328 9.427 9.328 9.496 9.442 9.465 9.554 9.328 9.531 9.524 9.328 9.576 9.408 9.479 9.685 9.328 9.656 9.66 9.328 9.686 9.655 9.434 9.746 9.52 9.603 9.815 9.328 9.823 9.76 9.76 9.76 9.941 9.76 10.13 10.267 10.104 10.132 10.136 10.277 10.277 10.285 10.226 9.814 10.153 10.199 10.133 10.277 9.949 10.552 10.146 10.073 10.432 10.241 10.089 10.089 10.089 10.089 10.146 10.179 10.168 10.168 10.175 9.969 10.08 9.702 9.787 10.094 -9999 -9999 -9999 -9999 -9999 -9999 -9999 -9999 -9999 -9999 -9999 -9999 -9999 -9999 -9999 -9999 -9999 -9999 -9999 -9999
-9999 -9999 -9999 -9999 -9999 -9999 -9999 -9999 -9999 -9999 -9999 -9999 -9999 -9999 -9999 -9999 -9999 -9999 -9999 -9999 -9999 -9999 -9999 -9999 -9999 -9999 -9999 -9999 -9999 -9999 -9999 -9999 -9999 -9999 -9999 -9999 -9999 -9999 -9999 -9999 -9999 8.497 8.473 8.582 8.607 8.462 8.629 8.453 8.452 8.413 8.298 8.298 8.444 8.133 8.286 8.274 8.164 8.265 8.304 8.005 8.057 8.073 7.951 8.045 8.036 8.057 7.944 7.988 7.865 7.913 7.865 8.099 8.274 8.274 8.422 8.456 8.357 8.544 8.259 8.304 8.164 8.279 8.007 8.281 8.248 7.883 7.493 7.476 7.557 7.437 7.267 6.628 7.968 7.767 7.941 8.144 7.588 7.45 7.809 8.136 7.829 8.01 8.286 8.014 8.088 8.206 8.209 8.209 8.209 8.07 8.182 8.088 8.184 8.107 8.067 8.294 8.169 8.176 8.17 8.557 8.482 8.722 8.859 9.28 9.062 8.651 8.688 8.588 8.682 9.018 9.109 9.056 9.144 9.2 9.03 9.36 9.41 9.424 9.088 8.925 8.889 8.861 8.874 8.858 8.91 8.817 8.69 9.588 9.953 9.673 9.624 9.66 9.833 10.112 9.357 9.485 9.144 9.294 9.9 10.068 10.085 10.032 9.92 9.938 9.976 9.941 9.761 9.52 9.218 9.028 8.852 8.808 8.776 8.776 8.776 8.776 8.776 8.916 8.976 9.166 9.119 9.115 9.136 9.168 9.317 9.163 9.223 9.133 9.133 9.273 9.502 9.377 9.328 9.328 9.328 9.328 9.328 9.328 9.328 9.328 9.328 9.328 9.328 9.328 9.328 9.328 9.328 9.328 9.328 9.328 9.328 9.328 9.328 9.328 9.328 9.328 9.328 9.328 9.328 9.328 9.784 9.76 9.782 9.76 9.76 9.76 9.76 10.002 10.07 10.275 10.142 10.162 10.181 10.462 10.364 9.814 10.059 10.134 10.133 10.139 9.949 10.364 10.2 10.093 10.39 10.301 10.089 10.089 10.089 10.089 10.204 10.286 10.168 10.192 10.175 10.116 10.19 9.971 10.389 9.84 9.898 -9999 -9999 -9999 -9999 -9999 -9999 -9999 -9999 -9999 -9999 -9999 -9999 -9999 -9999 -9999 -9999 -9999 -9999 -9999
-9999 -9999 -9999 -9999 -9999 -9999 -9999 -9999 -9999 -9999 -9999 -9999 -9999 -9999 -9999 -9999 -9999 -9999 -9999 -9999 -9999 -9999 -9999 -9999 -9999 -9999 -9999 -9999 -9999 -9999 -9999 -9999 -9999 -9999 -9999 -9999 -9999 -9999 -9999 -9999 -9999 8.636 8.511 8.628 8.631 8.608 8.709 8.452 8.457 8.435 8.346 8.352 8.36 8.133 8.35 8.235 8.164 8.197 8.23 8.136 7.99 7.992 7.951 8.005 8.046 7.962 8.09 8.084 7.865 7.982 7.865 8.005 8.485 8.369 8.484 8.48 8.506 8.259 8.293 8.347 8.396 8.298 8.016 8.029 8.262 7.814 7.631 7.437 7.437 7.596 7.482 6.628 7.804 7.731 7.974 7.95 8.091 7.654 7.45 7.81 8.069 8.065 8.01 8.081 8.074 8.233 8.3 8.281 8.414 8.216 8.078 8.153 8.084 8.206 8.28 8.067 8.452 8.379 8.17 8.32 8.454 8.387 8.576 8.807 8.788 8.651 8.692 8.588 8.742 8.899 8.98 8.922 9.12 9.147 8.931 9.083 9.056 8.963 8.862 8.697 8.697 8.697 8.697 8.697 8.929 8.93 8.697 8.974 8.988 9.287 9.28 9.262 9.253 10.11 9.339 9.286 9.258 9.569 10.02 10.022 10.088 9.765 9.752 9.717 9.81 9.464 9.402 9.098 9.028 9.064 9.111 9.145 9.093 9.056 8.914 9.015 8.776 9.027 9.206 9.157 9.115 9.115 9.125 9.132 9.132 9.133 9.133 9.133 9.133 9.301 9.458 9.328 9.524 9.466 9.593 9.527 9.429 9.573 9.582 9.458 9.623 9.623 9.497 9.449 9.69 9.792 9.912 9.746 9.83 9.898 9.757 9.971 9.871 9.863 9.801 9.742 9.908 9.927 9.934 9.328 9.853 9.76 9.871 9.991 9.979 10.073 10.101 10.294 10.171 10.284 10.174 10.222 10.225 10.503 10.476 9.814 10.168 10.142 10.334 10.19 9.978 10.402 10.425 10.093 10.165 10.126 10.089 10.089 10.089 10.089 10.151 10.342 10.436 10.217 10.116 10.148 10.432 10.329 10.224 10.161 9.84 10.096 -9999 -9999 -9999 -9999 -9999 -9999 -9999 -9999 -9999 -9999 -9999 -9999 -9999 -9999 -9999 -9999 -9999 -9999
-9999 -9999 -9999 -9999 -9999 -9999 -9999 -9999 -9999 -9999 -9999 -9999 -9999 -9999 -9999 -9999 -9999 -9999 -9999 -9999 -9999 -9999 -9999 -9999 -9999 -9999 -9999 -9999 -9999 -9999 -9999 -9999 -9999 -9999 -9999 -9999 -9999 -9999 -9999 -9999 -9999 -9999 8.636 8.511 8.551 8.452 8.452 8.452 8.492 8.477 8.433 8.167 8.167 8.133 8.387 8.269 8.21 8.168 8.329 8 7.951 7.951 7.951 8.142 7.972 7.881 8.094 8.013 7.865 7.969 7.865 8.124 8.524 8.482 8.577 8.646 8.568 8.357 8.518 8.422 8.283 8.29 8.217 8.18 8.262 8.012 7.548 7.624 7.744 7.612 7.254 6.628 7.731 7.83 7.962 8.048 7.936 7.876 7.766 7.45 7.728 8.169 8.058 8.065 8.052 8.145 8.092 8.068 8.084 8.188 8.331 8.171 8.084 8.223 8.364 8.337 8.338 8.368 8.17 8.385 8.376 8.502 8.787 8.576 8.726 8.674 8.588 8.6 8.652 8.679 8.83 8.838 8.848 8.931 9.176 8.989 9.025 8.825 8.796 8.798 8.827 8.984 9.081 8.94 8.697 8.697 8.697 8.697 8.765 8.882 9.029 9.029 9.029 9.05 9.177 9.294 9.258 9.705 10.068 9.997 9.973 9.907 9.555 9.587 9.406 9.402 9.484 9.57 9.676 9.142 9.469 9.461 9.24 9.193 9.038 8.813 8.776 8.788 9.056 9.115 9.196 9.333 9.373 9.226 9.201 9.324 9.282 9.416 9.409 9.32 9.528 9.507 9.385 9.454 9.51 9.38 9.616 9.689 9.731 9.79 9.723 9.658 9.714 9.558 9.662 9.713 9.648 9.75 9.682 9.589 9.728 9.86 9.747 9.875 9.805 9.708 9.708 9.755 9.691 9.328 9.661 9.661 9.661 9.661 9.661 9.661 9.661 9.661 9.661 9.661 9.661 9.661 9.661 9.661 9.661 9.87 9.814 9.814 9.814 10.064 10.292 10.323 10.438 10.123 10.11 10.089 10.089 10.251 10.089 10.089 10.089 10.165 10.249 10.242 10.116 10.31 10.281 10.308 10.225 10.298 10.217 10.066 -9999 -9999 -9999 -9999 -9999 -9999 -9999 -9999 -9999 -9999 -9999 -9999 -9999 -9999 -9999 -9999 -9999 -9999
-9999 -9999 -9999 -9999 -9999 -9999 -9999 -9999 -9999 -9999 -9999 -9999 -9999 -9999 -9999 -9999 -9999 -9999 -9999 -9999 -9999 -9999 -9999 -9999 -9999 -9999 -9999 -9999 -9999 -9999 -9999 -9999 -9999 -9999 -9999 -9999 -9999 -9999 -9999 -9999 -9999 -9999 -9999 8.643 8.601 8.556 8.65 8.564 8.458 8.463 8.436 8.488 8.455 8.268 8.358 8.366 8.239 8.261 8.216 8.109 8.208 8.063 8.036 7.994 8.009 8.011 7.865 7.865 7.865 7.865 7.865 7.865 8.369 8.369 8.434 8.449 8.351 8.351 8.351 8.232 8.232 8.217 8.502 8.655 8.106 8.053 7.548 7.705 7.78 7.714 7.387 6.628 7.95 7.917 8.182 7.981 8.017 7.882 8.08 7.756 7.45 7.68 7.879 7.917 7.98 8.048 8.103 8.082 7.914 8.088 8.129 8.048 8.264 8.186 8.448 8.496 8.337 8.556 8.17 8.625 8.525 8.698 9.073 8.694 8.689 8.795 9.035 8.753 8.846 8.695 8.928 8.833 8.964 9.073 9.143 9.122 9.353 9.063 9.199 8.933 9.189 9.053 9.01 8.872 8.855 8.918 8.697 9.093 9.03 9.371 9.377 9.248 9.581 9.499 9.374 9.389 9.258 9.881 9.905 9.788 9.831 9.738 9.52 9.52 9.774 9.402 9.805 9.685 9.327 9.17 9.452 9.34 9.12 9.087 8.776 8.856 8.923 8.776 8.903 8.846 8.776 8.776 8.778 8.778 8.78 8.923 8.935 8.935 8.935 8.935 8.935 8.935 8.935 8.935 9.03 9.22 9.249 9.245 9.245 9.357 9.373 9.277 9.255 9.209 9.455 9.455 9.703 9.434 9.58 9.557 9.665 9.735 9.776 9.742 9.727 9.75 9.708 9.768 9.831 9.435 9.89 9.942 9.857 9.972 10.077 9.97 10.198 10.239 10.11 10.123 10.126 10.073 10.219 10.173 10.11 9.829 10.387 10.416 10.377 10.162 10.045 10.593 10.32 10.525 10.664 10.643 10.674 10.685 10.619 11.321 10.867 11.354 10.948 11.031 11.109 10.755 10.493 10.621 10.434 10.452 10.443 10.507 -9999 -9999 -9999 -9999 -9999 -9999 -9999 -9999 -9999 -9999 -9999 -9999 -9999 -9999 -9999 -9999 -9999 -9999
-9999 -9999 -9999 -9999 -9999 -9999 -9999 -9999 -9999 -9999 -9999 -9999 -9999 -9999 -9999 -9999 -9999 -9999 -9999 -9999 -9999 -9999 -9999 -9999 -9999 -9999 -9999 -9999 -9999 -9999 -9999 -9999 -9999 -9999 -9999 -9999 -9999 -9999 -9999 -9999 -9999 -9999 -9999 8.687 8.796 8.6 8.53 8.474 8.436 8.436 8.67 8.441 8.268 8.416 8.333 8.239 8.239 8.476 8.429 8.218 8.328 8.234 8.138 8.098 7.994 8.066 8.242 8.229 8.098 7.87 7.865 8.172 8.669 8.781 8.685 8.688 8.605 8.433 8.61 8.537 8.357 8.312 8.362 8.457 8.089 8.036 7.717 7.795 7.84 7.679 7.524 6.628 7.963 7.992 8.047 8.179 7.961 7.965 8.188 8.165 7.762 7.45 7.45 7.45 7.72 7.878 7.878 7.878 7.878 7.878 7.878 8.053 8.219 8.186 8.341 8.54 8.589 8.527 8.337 8.679 8.68 8.954 8.771 8.689 8.741 8.871 9.207 9.111 8.963 8.784 8.946 8.854 8.96 9.025 9.025 9.164 9.371 9.063 9.102 9.401 9.181 9.108 8.992 8.951 8.921 8.958 8.834 9.031 9.1 9.398 9.495 9.434 9.521 9.473 9.504 9.566 9.323 9.885 10.048 9.689 9.689 9.814 9.627 9.872 9.789 9.636 9.628 9.627 9.46 9.17 9.378 9.34 9.318 9.051 9.074 8.776 8.901 8.916 8.776 8.863 8.776 8.88 8.995 8.935 8.951 9.091 9.157 9.292 9.227 9.133 9.156 9.227 9.331 9.311 8.935 9.548 9.402 9.245 9.549 9.185 9.538 9.682 9.144 9.697 9.614 9.455 9.709 9.375 9.678 9.479 9.435 9.435 9.435 9.435 9.435 9.435 9.435 9.435 9.435 9.435 9.701 9.701 9.793 9.793 9.793 9.793 10.164 10.025 10.041 10.039 9.862 10.021 10.223 10.02 10.027 9.785 10.109 10.09 10.117 10.049 9.792 10.479 10.376 10.342 10.668 10.797 10.745 10.708 10.543 11.48 10.625 11.325 10.642 11.054 11.195 10.779 10.785 10.585 10.554 10.625 10.677 11.23 -9999 -9999 -9999 -9999 -9999 -9999 -9999 -9999 -9999 -9999 -9999 -9999 -9999 -9999 -9999 -9999 -9999 -9999
-9999 -9999 -9999 -9999 -9999 -9999 -9999 -9999 -9999 -9999 -9999 -9999 -9999 -9999 -9999 -9999 -9999 -9999 -9999 -9999 -9999 -9999 -9999 -9999 -9999 -9999 -9999 -9999 -9999 -9999 -9999 -9999 -9999 -9999 -9999 -9999 -9999 -9999 -9999 -9999 -9999 -9999 -9999 -9999 8.503 8.527 8.436 8.436 8.436 8.494 8.607 8.504 8.451 8.428 8.452 8.239 8.239 8.598 8.636 8.201 8.126 8.126 8.089 8.089 8.056 8.214 8.151 8.224 8.043 8.085 7.865 8.202 8.627 8.755 8.705 8.867 8.777 8.716 8.517 8.544 8.312 8.618 8.66 8.415 8.146 7.717 7.765 7.83 7.874 7.665 7.858 6.628 7.906 8.16 8.177 8.192 8.135 8.076 8.043 8.222 8.05 7.99 7.774 7.883 7.971 7.948 7.902 7.946 7.896 8.056 7.878 7.878 8.257 8.204 8.186 8.285 8.366 8.362 8.446 8.839 8.884 8.864 8.863 9.168 8.98 9.062 9.225 9.083 9.145 9.203 9.044 8.903 8.899 9.101 9.346 9.237 9.405 9.148 9.352 9.412 9.094 9.094 9.23 8.921 8.933 8.977 8.95 9.032 9.317 9.34 9.34 9.421 9.496 9.509 9.639 9.44 9.467 9.417 9.689 9.92 9.83 9.723 9.797 9.766 9.809 9.774 9.857 9.714 9.898 9.17 9.432 9.443 9.34 9.061 9.038 9.003 8.776 8.776 8.776 8.893 8.917 8.776 8.974 8.941 8.971 9.211 9.219 9.217 9.355 9.333 9.283 9.397 9.408 9.387 8.935 9.573 9.425 9.265 9.657 9.185 9.594 9.68 9.144 9.752 9.588 9.482 9.827 9.375 9.666 9.702 9.695 9.646 9.776 9.577 9.864 9.886 9.435 9.693 9.831 9.435 9.78 9.933 9.867 9.871 9.894 10.177 10.246 10.001 10.154 10.009 9.862 10.031 9.989 10.123 10.146 9.759 9.759 9.759 9.759 9.759 9.759 9.712 9.712 9.712 9.712 9.712 9.697 9.603 9.553 9.553 9.553 9.52 9.5 9.5 9.5 9.5 9.5 9.5 9.5 9.402 9.343 9.279 -9999 -9999 -9999 -9999 -9999 -9999 -9999 -9999 -9999 -9999 -9999 -9999 -9999 -9999 -9999 -9999 -9999 -9999
-9999 -9999 -9999 -9999 -9999 -9999 -9999 -9999 -9999 -9999 -9999 -9999 -9999 -9999 -9999 -9999 -9999 -9999 -9999 -9999 -9999 -9999 -9999 -9999 -9999 -9999 -9999 -9999 -9999 -9999 -9999 -9999 -9999 -9999 -9999 -9999 -9999 -9999 -9999 -9999 -9999 -9999 -9999 -9999 8.595 8.503 8.492 8.436 8.436 8.505 8.651 8.519 8.468 8.362 8.511 8.239 8.239 8.404 8.422 8.26 8.126 8.276 8.195 8.182 8.147 8.205 8.043 8.043 8.043 8.192 7.865 7.935 8.203 8.4 8.726 8.925 8.841 8.625 8.691 8.535 8.644 8.552 8.545 8.309 8.219 7.878 8.059 7.915 7.868 7.969 7.967 6.628 7.593 8.08 8.165 8.094 8.076 8.203 8.134 8.191 7.994 8.146 8.172 8.017 8.133 8.165 8.174 8.126 8.188 8.213 8.089 7.878 8.339 8.274 8.348 8.552 8.827 8.628 8.415 8.745 8.86 8.754 8.847 9.108 8.952 8.92 9.505 9.036 8.95 9.298 9.228 9.02 8.899 9.034 9.303 9.15 9.372 9.344 9.29 9.094 9.094 9.191 9.299 8.975 9.014 8.996 8.95 9.067 9.353 9.494 9.428 9.606 9.657 9.734 9.474 9.44 9.726 9.632 9.839 9.852 9.788 9.755 9.651 9.841 9.844 9.834 9.729 9.567 9.471 9.17 9.353 9.377 9.33 9.143 9.086 8.988 8.776 8.776 8.857 8.776 8.788 8.791 8.776 9.105 9.004 8.776 8.776 8.776 8.776 8.776 8.776 8.776 9.329 9.34 8.935 9.589 9.497 9.388 9.745 9.185 9.628 9.784 9.144 9.678 9.481 9.481 9.784 9.375 9.603 9.722 9.646 9.677 9.79 9.577 9.74 9.788 9.435 9.74 9.89 9.435 9.691 9.752 9.904 9.891 9.868 10.024 9.991 9.988 9.951 9.889 9.862 10.007 9.928 10.055 10.043 9.759 10.094 10.195 10.12 10.157 10.102 10.273 10.291 10.137 10.032 10.26 10.053 9.96 10.465 9.824 10.04 10.22 9.831 9.752 9.991 9.793 9.629 9.582 9.725 9.725 9.915 9.855 -9999 -9999 -9999 -9999 -9999 -9999 -9999 -9999 -9999 -9999 -9999 -9999 -9999 -9999 -9999 -9999 -9999 -9999
-9999 -9999 -9999 -9999 -9999 -9999 -9999 -9999 -9999 -9999 -9999 -9999 -9999 -9999 -9999 -9999 -9999 -9999 -9999 -9999 -9999 -9999 -9999 -9999 -9999 -9999 -9999 -9999 -9999 -9999 -9999 -9999 -9999 -9999 -9999 -9999 -9999 -9999 -9999 -9999 -9999 -9999 -9999 -9999 -9999 8.677 8.56 8.548 8.436 8.449 8.537 8.448 8.478 8.384 8.362 8.239 8.239 8.239 8.239 8.407 8.126 8.339 8.126 8.176 8.207 8.113 8.177 8.432 8.043 8.187 7.882 8.296 8.637 8.773 8.755 9.093 9.027 8.776 8.596 8.656 8.506 8.767 8.407 8.344 7.878 8.143 7.868 7.953 7.868 7.978 8.257 6.628 7.594 7.984 8.111 8.123 8.116 8.182 8.134 8.254 8.306 8.162 8.121 8.151 8.162 8.111 8.044 8.166 8.121 8.3 8.27 8.472 8.152 8.247 8.323 8.366 8.652 8.666 8.545 8.872 8.702 8.602 8.762 9.062 8.864 8.927 9.382 8.942 8.885 8.947 8.935 9.149 8.899 9.067 9.295 9.179 9.114 9.202 9.094 9.094 9.094 9.169 9.246 8.95 8.95 8.95 8.95 8.95 9.468 9.253 9.239 9.277 9.184 9.456 9.44 9.908 9.821 9.71 9.632 9.632 9.632 9.632 9.632 9.955 9.777 9.787 9.638 9.708 9.636 9.17 9.61 9.56 9.287 9.192 9.177 8.776 9.017 8.916 8.776 8.97 8.776 8.909 8.776 8.776 8.776 8.998 9.158 9.18 9.384 9.275 9.478 8.776 9.408 9.497 8.977 9.5 9.552 9.461 9.739 9.185 9.634 9.741 9.144 9.659 9.481 9.481 9.746 9.375 9.672 9.803 9.673 9.68 9.827 9.577 9.834 9.847 9.435 9.861 9.856 9.435 9.86 9.93 9.817 9.868 10.058 10.03 9.988 9.994 9.91 9.862 9.862 9.862 9.872 9.984 9.759 9.759 9.988 10.05 10.097 10.097 10.178 10.277 10.326 10.29 10.342 10.374 10.23 10.339 10.625 9.881 10.051 10.169 10.213 9.752 9.752 9.781 9.742 9.68 10.195 10.084 10.255 9.889 -9999 -9999 -9999 -9999 -9999 -9999 -9999 -9999 -9999 -9999 -9999 -9999 -9999 -9999 -9999 -9999 -9999 -9999
-9999 -9999 -9999 -9999 -9999 -9999 -9999 -9999 -9999 -9999 -9999 -9999 -9999 -9999 -9999 -9999 -9999 -9999 -9999 -9999 -9999 -9999 -9999 -9999 -9999 -9999 -9999 -9999 -9999 -9999 -9999 -9999 -9999 -9999 -9999 -9999 -9999 -9999 -9999 -9999 -9999 -9999 -9999 -9999 -9999 -9999 8.664 8.544 8.436 8.61 8.545 8.264 8.239 8.239 8.239 8.239 8.239 8.468 8.318 8.37 8.126 8.126 8.126 8.206 8.175 8.121 8.179 8.228 8.043 8.205 7.891 8.255 8.608 8.869 8.758 9.079 9.173 8.794 8.637 8.667 8.458 8.56 8.376 8.273 8.304 8.181 7.868 8.037 7.868 8.075 8.031 6.628 7.679 7.664 8.239 8.232 8.215 8.496 8.424 8.303 8.355 8.442 8.217 8.282 8.22 8.112 8.044 8.121 8.443 8.363 8.365 8.35 8.152 8.289 8.341 8.452 8.466 8.528 8.528 8.54 8.567 8.567 8.567 8.567 8.68 8.68 8.68 8.68 8.793 8.919 8.899 8.899 8.899 8.899 8.924 8.934 9.018 9.126 9.395 9.094 9.094 9.22 9.223 8.96 8.993 9.265 9.408 8.983 9.232 9.122 9.122 9.129 9.668 9.608 9.557 9.758 9.763 9.832 9.857 10 10.015 10.012 9.828 10.022 9.841 9.7 9.65 9.729 9.51 9.17 9.606 9.618 9.232 9.13 9.13 8.776 8.905 9.027 8.903 8.776 8.86 8.776 9.081 8.832 8.776 9.017 8.949 9.214 9.328 9.355 9.345 8.823 9.252 9.435 9.054 9.515 9.536 9.461 9.693 9.185 9.642 9.634 9.144 9.573 9.489 9.481 9.687 9.375 9.575 9.651 9.63 9.575 9.672 9.577 9.767 9.904 9.435 9.874 9.945 9.435 9.899 9.964 10.093 10.055 10.183 10.166 10.209 10.381 10.171 10.064 9.862 9.919 9.862 9.811 9.76 9.759 10.219 10.183 10.144 10.298 10.342 10.265 10.572 10.449 10.366 10.459 10.347 10.325 10.608 9.95 10.057 10.186 9.752 9.963 9.941 9.797 9.855 9.789 10.289 10.332 10.177 10.035 -9999 -9999 -9999 -9999 -9999 -9999 -9999 -9999 -9999 -9999 -9999 -9999 -9999 -9999 -9999 -9999 -9999 -9999
-9999 -9999 -9999 -9999 -9999 -9999 -9999 -9999 -9999 -9999 -9999 -9999 -9999 -9999 -9999 -9999 -9999 -9999 -9999 -9999 -9999 -9999 -9999 -9999 -9999 -9999 -9999 -9999 -9999 -9999 -9999 -9999 -9999 -9999 -9999 -9999 -9999 -9999 -9999 -9999 -9999 -9999 -9999 -9999 -9999 -9999 8.436 8.436 8.436 8.626 8.683 8.465 8.355 8.486 8.482 8.643 8.353 8.378 8.318 8.35 8.38 8.37 8.26 8.365 8.244 8.219 8.043 8.043 8.043 8.182 7.919 7.891 8.22 8.33 9.016 8.991 9.204 8.755 8.855 8.838 8.749 8.245 8.562 8.245 8.396 8.228 8.105 7.868 7.868 7.868 8.211 7.106 6.628 7.862 7.601 7.601 7.601 7.654 7.76 7.927 7.935 7.954 7.954 7.954 7.964 7.991 8.002 8.16 8.179 8.152 8.152 8.152 8.152 8.152 8.152 8.328 8.663 8.759 8.528 8.815 8.74 8.725 8.733 9.326 8.853 8.77 8.825 8.805 8.68 8.982 8.906 8.899 8.91 9.16 9.048 9.102 9.126 9.268 9.117 9.094 9.165 9.235 9.22 9.255 9.118 9.405 9.1 9 9.122 9.472 9.509 9.436 9.56 9.557 9.651 9.557 9.772 9.835 9.823 9.901 9.74 9.902 9.903 9.887 9.73 9.686 9.632 9.661 9.553 9.17 9.627 9.422 9.212 9.183 9.132 8.776 8.92 8.999 8.988 8.886 8.776 9.08 8.776 9.035 8.931 8.776 9.056 8.776 8.826 8.927 8.921 8.988 9.081 9.11 9.084 9.459 9.557 9.476 9.572 9.185 9.517 9.452 9.144 9.48 9.513 9.481 9.741 9.375 9.539 9.649 9.575 9.576 9.687 9.577 9.796 9.805 9.435 9.831 10.015 9.435 9.717 9.717 9.878 10.025 9.994 10.142 10.175 10.147 10.147 10.042 9.862 10.044 9.896 9.784 9.759 9.759 10.055 10.095 10.091 10.091 10.091 10.162 10.165 10.489 10.369 10.339 10.41 10.405 10.403 9.95 10.3 10.209 10.106 10.147 10.088 9.797 10.045 10.091 10.235 10.227 10.319 10.189 -9999 -9999 -9999 -9999 -9999 -9999 -9999 -9999 -9999 -9999 -9999 -9999 -9999 -9999 -9999 -9999 -9999 -9999
-9999 -9999 -9999 -9999 -9999 -9999 -9999 -9999 -9999 -9999 -9999 -9999 -9999 -9999 -9999 -9999 -9999 -9999 -9999 -9999 -9999 -9999 -9999 -9999 -9999 -9999 -9999 -9999 -9999 -9999 -9999 -9999 -9999 -9999 -9999 -9999 -9999 -9999 -9999 -9999 -9999 -9999 -9999 -9999 -9999 -9999 -9999 8.65 8.59 8.473 8.626 8.652 8.641 8.586 8.587 8.424 8.331 8.479 8.361 8.426 8.473 8.599 8.257 8.239 8.235 8.209 8.105 8.555 8.043 8.195 7.96 8.273 8.875 8.916 8.947 8.971 8.755 9.03 8.792 8.8 8.768 8.795 8.21 8.513 8.352 8.426 7.868 8.214 7.981 7.913 8.447 8.206 6.628 7.419 8.147 7.863 8.274 8.147 8.361 8.496 8.448 8.425 8.45 8.319 8.2 8.532 8.537 8.559 8.617 8.7 8.499 8.497 8.289 8.181 8.217 8.671 8.703 8.745 8.528 8.892 8.757 8.773 8.862 9.322 8.893 8.774 8.891 8.948 8.77 8.981 8.899 8.899 8.949 8.91 8.939 9.22 8.998 9.083 9.339 9.34 9.221 9.36 9.273 9.225 9.181 9.463 9.508 9.426 9.09 9.44 9.484 9.436 9.604 9.576 9.598 9.747 9.716 9.716 9.716 9.716 9.716 9.716 9.716 9.829 9.785 9.856 9.628 9.609 9.585 9.17 9.359 9.075 9.052 9.052 8.852 8.87 8.807 8.807 8.848 8.776 8.799 8.776 9.273 8.776 9.051 8.887 8.776 9.051 9.264 9.294 9.466 9.404 9.468 9.423 9.093 9.484 9.45 9.45 9.557 9.185 9.49 9.66 9.144 9.531 9.471 9.471 9.585 9.375 9.483 9.575 9.602 9.636 9.67 9.609 9.89 9.837 9.435 9.857 10.022 9.435 9.87 9.887 9.974 9.9 10.142 10.157 10.174 10.191 10.173 10.077 9.862 9.996 9.907 10.043 9.807 9.759 10.193 10.055 10.311 10.122 10.219 10.219 10.351 10.352 10.407 10.36 10.339 10.339 10.339 9.95 10.422 10.351 10.364 10.367 10.428 9.923 9.949 10.03 10.106 10.17 10.528 9.953 -9999 -9999 -9999 -9999 -9999 -9999 -9999 -9999 -9999 -9999 -9999 -9999 -9999 -9999 -9999 -9999 -9999 -9999
-9999 -9999 -9999 -9999 -9999 -9999 -9999 -9999 -9999 -9999 -9999 -9999 -9999 -9999 -9999 -9999 -9999 -9999 -9999 -9999 -9999 -9999 -9999 -9999 -9999 -9999 -9999 -9999 -9999 -9999 -9999 -9999 -9999 -9999 -9999 -9999 -9999 -9999 -9999 -9999 -9999 -9999 -9999 -9999 -9999 -9999 -9999 -9999 8.754 8.654 8.696 8.778 8.796 8.73 8.572 8.642 8.444 8.239 8.239 8.239 8.239 8.239 8.239 8.351 8.287 8.288 8.257 8.368 8.043 8.207 8.031 8.368 9.013 8.972 8.81 8.809 8.94 8.876 8.842 8.853 8.783 8.21 8.524 8.21 8.506 7.868 8.194 8.09 8.073 7.913 8.164 8.519 8.139 6.628 7.74 8.133 8.253 8.238 8.446 8.45 8.359 8.359 8.411 8.486 8.26 8.686 8.532 8.614 8.566 8.862 8.449 8.386 8.256 8.181 8.181 8.718 8.812 8.788 8.528 8.785 8.739 8.906 8.959 9.331 8.816 8.863 8.793 8.895 8.847 8.974 8.921 8.918 8.975 9.007 8.948 8.989 8.989 9.179 9.376 9.566 9.258 9.317 9.356 9.222 9.281 9.442 9.475 9.446 9.44 9.323 9.479 9.436 9.679 9.576 9.675 9.74 9.807 9.862 9.816 9.92 9.898 9.992 9.901 9.869 9.596 9.578 9.566 9.552 9.59 9.17 9.426 9.26 9.323 9.269 9.237 9.059 9.083 9.006 9.054 9.017 9.071 8.776 8.776 9.13 8.776 9.047 9 8.821 9.261 9.222 9.271 9.291 9.278 9.216 9.055 9.476 9.342 9.297 9.427 9.185 9.413 9.32 9.144 9.471 9.574 9.471 9.542 9.375 9.682 9.508 9.585 9.642 9.686 9.609 9.741 9.848 9.435 9.918 9.918 9.435 10.142 10.096 10.081 9.948 10.125 10.24 10.245 10.314 10.236 10.081 9.862 9.947 10.14 10.155 10.208 9.759 10.321 10.123 10.27 10.205 10.313 10.301 10.416 10.494 10.481 10.488 10.469 10.536 10.44 9.95 10.372 10.676 10.715 10.748 10.7 10.288 9.981 9.949 9.949 10.054 9.98 9.88 -9999 -9999 -9999 -9999 -9999 -9999 -9999 -9999 -9999 -9999 -9999 -9999 -9999 -9999 -9999 -9999 -9999 -9999
-9999 -9999 -9999 -9999 -9999 -9999 -9999 -9999 -9999 -9999 -9999 -9999 -9999 -9999 -9999 -9999 -9999 -9999 -9999 -9999 -9999 -9999 -9999 -9999 -9999 -9999 -9999 -9999 -9999 -9999 -9999 -9999 -9999 -9999 -9999 -9999 -9999 -9999 -9999 -9999 -9999 -9999 -9999 -9999 -9999 -9999 -9999 -9999 8.753 8.803 8.772 8.746 8.789 8.814 8.85 8.532 8.341 8.518 8.543 8.337 8.583 8.41 8.239 8.239 8.239 8.239 8.299 8.188 8.043 8.172 8.064 8.565 9.222 8.962 8.91 8.939 9.11 8.969 8.837 8.759 8.69 8.335 8.714 8.569 8.21 8.423 8.377 8.353 8.255 7.914 7.971 8.54 8.501 6.628 7.77 8.105 8.025 8.255 8.274 8.38 8.359 8.53 8.513 8.493 8.422 8.765 8.875 8.76 8.676 8.522 8.388 8.262 8.327 8.42 8.181 9.402 8.84 8.893 8.542 8.865 8.739 8.739 8.769 8.739 8.823 8.831 8.86 8.915 8.834 8.984 9.085 8.947 8.996 8.993 8.937 9.197 9.35 9.279 9.325 9.434 9.312 9.313 9.44 9.403 9.429 9.429 9.489 9.478 9.498 9.353 9.437 9.464 9.777 9.688 9.743 9.822 9.923 9.819 9.842 9.925 9.812 9.855 9.844 9.751 9.782 9.808 9.611 9.468 9.534 9.17 9.324 9.387 9.319 9.059 9.059 9.09 9.048 9.013 9.006 9.178 8.776 9.145 8.902 8.859 9.088 8.776 8.941 9.071 8.91 8.945 8.95 9.111 9.071 9.202 8.977 9.236 9.316 9.297 9.498 9.185 9.346 9.399 9.144 9.51 9.471 9.471 9.58 9.375 9.653 9.528 9.587 9.722 9.793 9.609 9.866 9.797 9.435 9.921 9.881 9.435 9.562 9.562 9.697 9.711 9.827 9.904 10.068 10.081 10.035 9.998 9.862 10.112 10.197 10.204 10.115 9.956 9.93 9.963 10.081 10.081 10.155 10.155 10.219 10.297 10.297 10.297 10.297 10.301 10.378 9.95 10.4 10.744 10.734 10.705 10.609 10.353 9.949 9.969 9.949 9.967 10.037 10.119 -9999 -9999 -9999 -9999 -9999 -9999 -9999 -9999 -9999 -9999 -9999 -9999 -9999 -9999 -9999 -9999 -9999 -9999
-9999 -9999 -9999 -9999 -9999 -9999 -9999 -9999 -9999 -9999 -9999 -9999 -9999 -9999 -9999 -9999 -9999 -9999 -9999 -9999 -9999 -9999 -9999 -9999 -9999 -9999 -9999 -9999 -9999 -9999 -9999 -9999 -9999 -9999 -9999 -9999 -9999 -9999 -9999 -9999 -9999 -9999 -9999 -9999 -9999 -9999 -9999 -9999 -9999 8.639 8.689 8.842 8.603 8.602 8.442 8.377 8.341 8.521 8.577 8.337 8.444 8.512 8.239 8.239 8.36 8.543 8.499 8.462 8.043 8.169 8.262 8.355 8.821 9.015 8.948 8.91 9.104 8.765 8.765 8.953 8.683 8.473 8.596 8.672 8.269 8.413 8.346 8.306 8.023 8.194 7.914 8.47 8.425 7.476 7.526 8.025 8.154 8.212 8.353 8.44 8.319 8.525 8.586 8.658 8.388 8.704 8.888 8.597 8.589 8.38 8.587 8.38 8.719 8.456 8.446 8.589 8.705 8.841 8.533 8.867 8.787 8.885 8.739 8.912 8.797 8.658 8.674 8.894 8.774 8.788 8.966 8.795 8.959 8.916 8.916 9.123 9.426 9.401 9.352 9.54 9.449 9.283 9.433 9.314 9.231 9.474 9.529 9.419 9.409 9.642 9.353 9.686 9.721 9.648 9.551 9.551 9.548 9.51 9.488 9.416 9.399 9.346 9.285 9.189 9.17 9.17 9.17 9.17 9.17 9.17 9.425 9.49 9.344 9.21 9.059 9.282 9.113 9.006 9.104 9.147 9.105 9.206 9.216 8.776 8.776 9.167 8.776 9.126 8.965 8.91 9.082 8.994 9.068 9.179 8.927 9.111 9.118 9.241 9.448 9.185 9.469 9.498 9.144 9.514 9.471 9.485 9.606 9.375 9.636 9.725 9.779 9.727 9.818 9.745 9.912 9.849 9.435 10.059 9.986 9.469 9.99 10.013 10.091 10.044 10.215 10.174 10.328 10.323 10.348 10.254 9.862 10.079 10.426 10.498 10.22 10.263 10.23 10.314 10.415 10.49 10.553 10.446 10.519 10.498 10.355 10.451 10.446 10.54 10.515 10.069 10.38 10.583 10.574 10.621 10.409 10.25 10.221 10.502 10.68 10.57 10.627 10.736 -9999 -9999 -9999 -9999 -9999 -9999 -9999 -9999 -9999 -9999 -9999 -9999 -9999 -9999 -9999 -9999 -9999 -9999
-9999 -9999 -9999 -9999 -9999 -9999 -9999 -9999 -9999 -9999 -9999 -9999 -9999 -9999 -9999 -9999 -9999 -9999 -9999 -9999 -9999 -9999 -9999 -9999 -9999 -9999 -9999 -9999 -9999 -9999 -9999 -9999 -9999 -9999 -9999 -9999 -9999 -9999 -9999 -9999 -9999 -9999 -9999 -9999 -9999 -9999 -9999 -9999 -9999 8.874 8.747 8.753 8.661 8.616 8.601 8.485 8.341 8.59 8.58 8.337 8.472 8.529 8.239 8.413 8.422 8.524 8.432 8.239 8.043 8.235 8.441 8.398 8.819 8.953 8.936 9.099 9.106 8.765 8.89 8.741 8.707 8.527 8.763 8.63 8.269 8.645 8.428 8.376 8.304 8.315 8.229 7.935 8.22 8.212 7.476 7.912 8.276 8.223 8.209 8.209 8.209 8.293 8.396 8.388 8.388 8.388 8.388 8.388 8.38 8.38 8.38 8.38 8.38 8.38 8.38 8.413 8.69 8.919 8.453 8.718 8.787 8.727 8.761 8.872 8.725 8.658 8.763 8.874 8.707 8.795 8.795 8.811 8.832 9.037 9.108 9.147 9.303 9.329 9.352 9.365 9.341 9.183 9.287 9.163 9.371 9.423 9.56 9.348 9.498 9.685 9.639 9.524 9.629 9.805 9.92 9.966 9.856 10.007 9.931 9.835 9.884 9.971 9.94 9.877 9.956 9.904 9.539 9.747 9.71 9.17 9.457 9.288 9.311 9.229 9.059 9.258 9.148 9.097 9.095 9.021 9.173 9.165 8.776 9.385 9.241 8.776 9.186 8.776 9.21 8.981 8.91 9.002 9.08 9.218 8.917 9.233 9.227 9.372 9.566 9.185 9.43 9.53 9.144 9.582 9.584 9.636 9.779 9.375 9.69 9.724 9.694 9.702 9.945 9.691 9.779 9.997 9.435 9.947 10.194 9.545 10.103 10.152 10.3 10.332 10.254 10.335 10.331 10.287 10.294 10.248 9.862 10.208 10.492 10.499 10.545 10.446 10.42 10.446 10.617 10.665 10.622 10.629 10.447 10.337 10.477 10.524 10.361 10.437 10.501 10.069 10.371 10.489 10.625 10.595 10.543 10.227 10.391 10.764 10.8 10.658 10.542 10.572 -9999 -9999 -9999 -9999 -9999 -9999 -9999 -9999 -9999 -9999 -9999 -9999 -9999 -9999 -9999 -9999 -9999 -9999
-9999 -9999 -9999 -9999 -9999 -9999 -9999 -9999 -9999 -9999 -9999 -9999 -9999 -9999 -9999 -9999 -9999 -9999 -9999 -9999 -9999 -9999 -9999 -9999 -9999 -9999 -9999 -9999 -9999 -9999 -9999 -9999 -9999 -9999 -9999 -9999 -9999 -9999 -9999 -9999 -9999 -9999 -9999 -9999 -9999 -9999 -9999 -9999 -9999 -9999 8.593 8.597 8.621 8.607 8.536 8.554 8.474 8.747 8.624 8.398 8.473 8.641 8.273 8.402 8.418 8.451 8.381 8.26 8.162 8.307 8.524 8.477 8.953 8.808 9.084 9.115 9.097 8.765 9.007 8.695 8.695 8.585 8.772 8.734 8.269 8.618 8.327 8.304 8.374 8.229 8.426 8.015 8.221 8.262 8.349 7.476 8.351 8.209 8.497 8.645 8.617 8.564 8.503 8.592 8.388 8.512 8.851 8.561 8.74 8.393 8.503 8.679 8.562 8.398 8.38 8.38 8.38 8.453 8.453 8.453 8.453 8.453 8.453 8.453 8.453 8.453 8.505 8.505 8.505 8.505 8.505 8.505 8.505 8.505 8.505 8.515 8.638 8.668 8.672 8.807 8.868 8.9 8.95 8.95 8.95 9.184 9.184 9.481 9.636 9.712 9.673 9.524 9.876 9.943 9.965 9.856 9.876 10.07 10.155 9.959 9.816 9.816 9.931 9.727 9.807 9.795 9.687 9.699 9.714 9.17 9.381 9.144 9.144 9.059 9.146 9.192 9.156 9.095 9.202 9.021 9.252 9.13 8.776 9.268 9.414 9.099 8.776 9.195 8.776 9.316 8.92 8.973 9.132 9.058 8.907 8.907 8.947 9.036 9.053 9.053 9.053 9.144 9.183 9.166 9.166 9.176 9.211 9.211 9.291 9.384 9.522 9.523 9.625 9.625 9.625 9.652 9.532 9.675 9.628 9.681 9.545 9.545 9.545 9.625 9.719 9.99 10.067 10.16 10.268 10.107 9.862 10.237 10.208 10.274 10.278 10.278 10.278 10.278 10.278 10.278 10.278 10.278 10.278 10.278 10.465 10.48 10.361 10.361 10.361 10.069 10.366 10.366 10.47 10.478 10.286 10.227 10.346 10.751 10.864 10.222 10.222 10.222 -9999 -9999 -9999 -9999 -9999 -9999 -9999 -9999 -9999 -9999 -9999 -9999 -9999 -9999 -9999 -9999 -9999 -9999
-9999 -9999 -9999 -9999 -9999 -9999 -9999 -9999 -9999 -9999 -9999 -9999 -9999 -9999 -9999 -9999 -9999 -9999 -9999 -9999 -9999 -9999 -9999 -9999 -9999 -9999 -9999 -9999 -9999 -9999 -9999 -9999 -9999 -9999 -9999 -9999 -9999 -9999 -9999 -9999 -9999 -9999 -9999 -9999 -9999 -9999 -9999 -9999 -9999 -9999 -9999 8.753 8.617 8.623 8.989 8.708 8.474 8.712 8.739 8.505 8.563 8.6 8.306 8.5 8.497 8.399 8.397 8.342 8.596 8.268 8.495 8.78 8.768 8.93 8.989 8.987 9.08 8.765 9.147 8.714 8.79 8.585 8.669 8.62 8.269 8.631 8.463 8.626 8.516 8.498 8.396 8.181 8.393 8.415 8.363 7.476 8.25 8.209 8.469 8.496 8.554 8.503 8.597 8.578 8.388 8.717 8.53 8.546 8.71 8.574 8.414 8.726 8.727 8.524 8.556 8.436 8.737 8.646 8.468 8.926 8.453 9.414 9.366 9.314 8.785 8.904 9.038 8.932 8.932 8.763 8.769 8.798 8.964 8.842 8.821 8.842 8.963 9.03 8.937 9.175 9.203 9.242 9.129 9.286 9.49 9.507 9.216 9.672 9.643 9.68 9.539 9.797 9.524 9.994 9.651 9.651 9.684 9.696 9.696 9.816 10.017 9.976 10.041 9.727 9.727 9.741 9.653 9.653 9.628 9.219 9.534 9.323 9.226 9.301 9.121 9.121 9.181 9.122 9.248 9.021 9.308 9.262 8.776 9.262 9.236 8.776 9.207 8.776 9.199 8.776 8.776 8.907 8.907 8.936 8.907 9.277 9.401 9.41 9.587 9.199 9.427 9.464 9.144 9.585 9.698 9.72 9.86 9.437 9.83 9.87 9.66 9.79 9.954 9.744 10.015 10.059 9.532 10.053 10.001 9.545 10.066 10.114 10.216 10.239 10.346 10.309 10.299 10.105 10.479 10.462 10.1 10.52 10.74 10.318 10.411 10.546 10.488 10.667 10.765 10.935 10.992 11.012 10.34 10.345 10.552 10.458 10.361 10.367 10.503 10.367 10.398 10.789 10.808 10.709 10.519 10.281 10.356 10.407 10.599 10.536 10.408 10.271 -9999 -9999 -9999 -9999 -9999 -9999 -9999 -9999 -9999 -9999 -9999 -9999 -9999 -9999 -9999 -9999 -9999 -9999
